0.150922 0.035773 0.043485 0.600000 0.000000 0.300000
0.152475 0.035773 -0.258103 0.600000 0.000000 0.300000
-0.456315 0.432089 0.551455 0.500000 0.000000 0.500000
-0.092577 -0.261283 -0.511675 0.300000 0.000000 0.600000
-0.560926 -0.678413 0.352658 0.600000 0.000000 0.300000
0.336478 0.192985 0.551455 0.500000 0.000000 0.500000
-0.021775 -0.681306 -0.044786 0.600000 0.300000 0.000000
-0.560926 -0.020028 0.171201 0.600000 0.000000 0.300000
0.011925 0.666409 -0.473439 0.300000 0.000000 0.600000
-0.526352 -0.567727 -0.242461 0.600000 0.000000 0.300000
0.521506 -0.317227 0.514000 0.300000 0.600000 0.000000
-0.560926 0.322107 -0.063651 0.600000 0.000000 0.300000
-0.488618 -0.419148 -0.500151 0.300000 0.000000 0.600000
0.545421 0.149831 -0.424477 0.300000 0.600000 0.000000
-0.141281 -0.681306 0.523570 0.500000 0.000000 0.500000
0.194579 0.571634 -0.511675 0.300000 0.000000 0.600000
-0.560926 0.405903 0.006148 0.600000 0.000000 0.300000
0.237098 0.542353 -0.511675 0.000000 0.000000 1.000000
-0.069233 0.666409 -0.200021 0.300000 0.000000 0.600000
-0.412045 -0.470543 -0.511675 0.300000 0.000000 0.600000
-0.078942 -0.010325 -0.396270 0.600000 0.000000 0.300000
0.096535 0.465980 -0.511675 0.300000 0.000000 0.600000
0.510848 0.614671 -0.015493 0.300000 0.600000 0.000000
0.321557 0.666409 -0.540240 0.000000 0.000000 1.000000
-0.185062 0.712506 0.271361 0.300000 0.000000 0.600000
0.368737 0.451259 0.516881 0.500000 0.000000 0.500000
0.165208 -0.624439 -0.546249 0.800000 0.200000 0.500000
0.479645 0.520263 -0.511675 0.300000 0.000000 0.600000
0.075941 -0.635209 0.491491 0.600000 0.300000 0.000000
0.510848 -0.528908 0.251083 0.300000 0.600000 0.000000
-0.424928 0.602353 0.551455 0.500000 0.000000 0.500000
0.266911 0.631085 0.516881 0.500000 0.000000 0.500000
0.187607 0.615522 0.551455 0.500000 0.000000 0.500000
-0.303486 0.666409 -0.028108 0.300000 0.000000 0.600000
0.510848 0.106974 -0.236359 0.300000 0.600000 0.000000
0.058410 -0.490770 -0.511675 0.300000 0.000000 0.600000
0.545421 -0.180975 -0.050483 0.300000 0.600000 0.000000
-0.192555 -0.010325 0.397042 0.600000 0.000000 0.300000
-0.404263 -0.321843 0.516881 0.500000 0.000000 0.500000
-0.102014 0.035773 0.314482 0.600000 0.000000 0.300000
-0.560926 -0.374150 0.327504 0.600000 0.000000 0.300000
-0.426995 0.712506 -0.088142 0.300000 0.000000 0.600000
-0.526352 0.065872 0.193099 0.600000 0.000000 0.300000
-0.246722 0.035773 0.190105 0.600000 0.000000 0.300000
-0.166311 -0.586610 -0.511675 0.300000 0.000000 0.600000
0.510848 0.568627 0.148206 0.300000 0.600000 0.000000
-0.136444 0.312529 0.516881 0.500000 0.000000 0.500000
-0.526352 -0.584749 0.196372 0.600000 0.000000 0.300000
0.089960 0.552820 0.516881 0.500000 0.000000 0.500000
-0.208519 -0.286803 0.551455 0.500000 0.000000 0.500000
-0.526352 0.177476 0.483428 0.600000 0.000000 0.300000
0.480651 -0.531650 -0.500151 0.300000 0.000000 0.600000
0.510848 -0.332654 0.482698 0.300000 0.600000 0.000000
-0.560926 0.141383 -0.460771 0.600000 0.000000 0.300000
0.545421 0.232679 0.392282 0.300000 0.600000 0.000000
0.466435 0.596985 -0.546249 0.000000 0.000000 1.000000
0.510848 -0.440574 -0.424717 0.300000 0.600000 0.000000
0.480954 -0.033227 -0.500151 0.300000 0.000000 0.600000
0.545421 -0.446485 0.261346 0.300000 0.600000 0.000000
0.082085 -0.061005 -0.500151 0.300000 0.000000 0.600000
0.322768 -0.010325 0.365614 0.600000 0.000000 0.300000
-0.318426 0.662499 0.516881 0.500000 0.000000 0.500000
0.271009 -0.681306 0.501329 0.600000 0.300000 0.000000
0.510848 -0.655052 0.168943 0.300000 0.600000 0.000000
0.440740 0.316640 0.516881 0.500000 0.000000 0.500000
-0.560926 0.604453 -0.190046 0.600000 0.000000 0.300000
0.174911 0.360093 0.551455 0.500000 0.000000 0.500000
-0.526352 0.473044 -0.160165 0.600000 0.000000 0.300000
0.145941 -0.681306 0.029881 0.600000 0.300000 0.000000
0.488283 -0.635209 -0.209486 0.600000 0.300000 0.000000
-0.174043 0.712506 -0.237249 0.300000 0.000000 0.600000
-0.019424 0.604196 -0.546249 0.000000 0.000000 1.000000
0.545421 0.221132 0.453675 0.300000 0.600000 0.000000
0.027662 0.698017 0.516881 0.500000 0.000000 0.500000
0.312531 -0.236311 -0.511675 0.300000 0.000000 0.600000
0.493734 -0.500914 0.551455 0.500000 0.000000 0.500000
-0.560926 -0.114410 0.061316 0.600000 0.000000 0.300000
0.545421 0.248618 -0.139091 0.300000 0.600000 0.000000
-0.434885 0.489048 0.516881 0.500000 0.000000 0.500000
0.378923 0.666409 0.403316 0.300000 0.000000 0.600000
0.510848 0.689511 0.270901 0.300000 0.600000 0.000000
0.545421 0.491111 0.220277 0.300000 0.600000 0.000000
-0.028394 0.178143 0.551455 0.500000 0.000000 0.500000
-0.251964 -0.010325 0.097987 0.600000 0.000000 0.300000
0.364555 -0.010325 -0.490431 0.600000 0.000000 0.300000
-0.491138 0.035773 -0.379787 0.600000 0.000000 0.300000
-0.029903 0.035773 -0.011021 0.600000 0.000000 0.300000
-0.444261 -0.635209 0.068700 0.600000 0.300000 0.000000
0.506859 0.217761 0.551455 0.500000 0.000000 0.500000
0.510848 -0.037213 0.211597 0.300000 0.600000 0.000000
-0.560926 -0.210889 0.421849 0.600000 0.000000 0.300000
-0.526352 -0.324315 -0.116394 0.600000 0.000000 0.300000
-0.130013 -0.681306 0.004055 0.600000 0.300000 0.000000
-0.526352 0.367751 0.151557 0.600000 0.000000 0.300000
-0.560926 -0.419114 -0.264922 0.600000 0.000000 0.300000
0.545421 -0.233480 0.166616 0.300000 0.600000 0.000000
-0.004631 0.666409 0.136277 0.300000 0.000000 0.600000
0.510848 -0.035063 0.279132 0.300000 0.600000 0.000000
0.510848 0.582898 0.426133 0.300000 0.600000 0.000000
-0.077508 -0.027631 0.551455 0.500000 0.000000 0.500000
0.093263 0.666409 -0.254324 0.300000 0.000000 0.600000
0.545421 -0.634132 -0.510922 0.300000 0.600000 0.000000
-0.495675 -0.613033 0.551455 0.500000 0.000000 0.500000
-0.183779 -0.433945 0.551455 0.500000 0.000000 0.500000
0.427452 -0.541442 -0.546249 0.800000 0.200000 0.500000
-0.120028 -0.127372 -0.500151 0.300000 0.000000 0.600000
0.408336 0.390034 -0.500151 0.300000 0.000000 0.600000
0.068098 -0.243166 0.551455 0.500000 0.000000 0.500000
-0.174019 -0.238904 -0.511675 0.300000 0.000000 0.600000
0.545421 0.341375 -0.054459 0.300000 0.600000 0.000000
-0.526352 -0.450221 -0.219026 0.600000 0.000000 0.300000
0.419234 0.166604 0.516881 0.500000 0.000000 0.500000
-0.387010 -0.010325 0.315870 0.600000 0.000000 0.300000
0.447573 0.088101 0.596872 0.000000 0.500000 0.500000
0.267450 -0.610218 -0.511675 0.800000 0.200000 0.500000
0.510848 -0.103772 -0.320785 0.300000 0.600000 0.000000
-0.560926 0.111100 -0.309917 0.600000 0.000000 0.300000
-0.537058 0.712507 -0.179422 0.600000 0.000000 0.300000
-0.526352 0.437065 0.296108 0.600000 0.000000 0.300000
0.027544 -0.635209 -0.380156 0.600000 0.300000 0.000000
0.534537 0.712507 0.464958 0.300000 0.600000 0.000000
0.024932 -0.506121 -0.511675 0.800000 0.200000 0.500000
0.187662 -0.478241 0.551455 0.500000 0.000000 0.500000
-0.106139 -0.101122 0.551455 0.500000 0.000000 0.500000
-0.526352 0.030417 0.198643 0.600000 0.000000 0.300000
-0.526352 -0.498704 -0.178714 0.600000 0.000000 0.300000
-0.195858 0.419349 0.516881 0.500000 0.000000 0.500000
-0.162514 -0.635209 0.432775 0.600000 0.300000 0.000000
-0.342697 0.190771 0.551455 0.500000 0.000000 0.500000
0.264138 -0.111906 -0.500151 0.300000 0.000000 0.600000
0.014855 -0.681306 0.018884 0.600000 0.300000 0.000000
0.042689 -0.247027 0.516881 0.500000 0.000000 0.500000
-0.356543 0.131456 0.551455 0.500000 0.000000 0.500000
-0.526352 0.370692 -0.036964 0.600000 0.000000 0.300000
0.545421 -0.117311 0.169110 0.300000 0.600000 0.000000
0.510848 0.384128 0.299914 0.300000 0.600000 0.000000
0.139763 -0.681306 0.291215 0.600000 0.300000 0.000000
-0.105787 0.326784 0.551455 0.500000 0.000000 0.500000
0.510848 0.193947 0.314898 0.300000 0.600000 0.000000
0.393467 -0.466117 0.516881 0.500000 0.000000 0.500000
0.467829 -0.635209 -0.049163 0.600000 0.300000 0.000000
0.295784 -0.010325 0.140119 0.600000 0.000000 0.300000
-0.434911 -0.391976 0.516881 0.500000 0.000000 0.500000
-0.526352 0.539922 0.291009 0.600000 0.000000 0.300000
0.301807 -0.010325 -0.455603 0.600000 0.000000 0.300000
0.052612 -0.010325 0.473183 0.600000 0.000000 0.300000
0.417052 0.612291 0.551455 0.500000 0.000000 0.500000
-0.398135 -0.010325 -0.194330 0.600000 0.000000 0.300000
0.273053 0.712506 -0.300698 0.300000 0.000000 0.600000
-0.053430 0.676674 0.516881 0.500000 0.000000 0.500000
-0.560926 -0.345959 -0.464291 0.600000 0.000000 0.300000
0.371590 0.035773 -0.334462 0.600000 0.000000 0.300000
0.545421 0.008654 -0.167919 0.300000 0.600000 0.000000
0.510848 -0.674043 0.451282 0.300000 0.600000 0.000000
0.222540 0.597541 -0.546249 0.000000 0.000000 1.000000
-0.236910 -0.635209 -0.080395 0.600000 0.300000 0.000000
-0.151790 0.491244 -0.511675 0.000000 0.000000 1.000000
0.302472 0.035773 0.491196 0.600000 0.000000 0.300000
0.322765 -0.551625 0.516881 0.500000 0.000000 0.500000
-0.560926 -0.531139 0.280616 0.600000 0.000000 0.300000
-0.135820 -0.320135 -0.500151 0.300000 0.000000 0.600000
-0.211475 0.666408 -0.510984 0.300000 0.000000 0.600000
0.004716 -0.511285 0.516881 0.500000 0.000000 0.500000
0.455991 0.308799 0.551455 0.500000 0.000000 0.500000
-0.195116 -0.635209 0.350292 0.600000 0.300000 0.000000
-0.307978 0.318644 0.551455 0.500000 0.000000 0.500000
-0.337624 0.347349 -0.500151 0.300000 0.000000 0.600000
0.545421 0.122580 -0.207578 0.300000 0.600000 0.000000
-0.526352 -0.505600 0.467811 0.600000 0.000000 0.300000
0.428781 0.035773 -0.144186 0.600000 0.000000 0.300000
-0.126940 0.443119 0.551455 0.500000 0.000000 0.500000
-0.337230 0.538296 0.551455 0.500000 0.000000 0.500000
-0.251404 -0.649567 0.516881 0.500000 0.000000 0.500000
0.257114 0.712506 0.322980 0.300000 0.000000 0.600000
-0.434474 0.241789 -0.511675 0.300000 0.000000 0.600000
-0.560926 -0.037534 -0.171236 0.600000 0.000000 0.300000
0.042674 0.394822 -0.500151 0.300000 0.000000 0.600000
0.510848 -0.077245 -0.236064 0.300000 0.600000 0.000000
-0.560926 -0.564179 -0.211010 0.600000 0.000000 0.300000
-0.526352 0.448718 0.342743 0.600000 0.000000 0.300000
0.234746 0.035773 -0.042298 0.600000 0.000000 0.300000
-0.526352 -0.104975 0.430360 0.600000 0.000000 0.300000
-0.526352 -0.134251 -0.503076 0.600000 0.000000 0.300000
-0.526352 -0.591926 0.484307 0.600000 0.000000 0.300000
-0.124168 0.626301 -0.546249 0.000000 0.000000 1.000000
-0.423822 -0.635209 -0.085354 0.600000 0.300000 0.000000
-0.338985 0.035773 0.075280 0.600000 0.000000 0.300000
0.453317 0.503644 -0.546249 0.000000 0.000000 1.000000
-0.325562 -0.635209 0.038449 0.600000 0.300000 0.000000
-0.227665 0.666409 -0.027276 0.300000 0.000000 0.600000
-0.560926 -0.452732 0.497326 0.600000 0.000000 0.300000
-0.001002 -0.454385 0.551455 0.500000 0.000000 0.500000
-0.459701 -0.229957 0.516881 0.500000 0.000000 0.500000
0.453995 0.666409 -0.478521 0.300000 0.000000 0.600000
-0.560926 0.320005 0.139943 0.600000 0.000000 0.300000
-0.073308 -0.635209 0.345854 0.600000 0.300000 0.000000
0.510848 0.090731 0.450557 0.300000 0.600000 0.000000
-0.526352 -0.460583 0.172177 0.600000 0.000000 0.300000
0.545421 0.499960 -0.518692 0.300000 0.600000 0.000000
0.545421 0.665929 -0.025688 0.300000 0.600000 0.000000
0.197206 0.712506 0.445486 0.300000 0.000000 0.600000
-0.554305 0.374923 0.514000 0.600000 0.000000 0.300000
0.510848 -0.187900 -0.289746 0.300000 0.600000 0.000000
0.131879 0.323562 0.516881 0.500000 0.000000 0.500000
-0.072568 -0.010325 0.421334 0.600000 0.000000 0.300000
-0.152236 0.712506 0.165556 0.300000 0.000000 0.600000
-0.048584 0.629729 0.516881 0.500000 0.000000 0.500000
0.010255 -0.010325 0.145791 0.600000 0.000000 0.300000
0.084741 0.712506 -0.158831 0.300000 0.000000 0.600000
0.086343 -0.681306 0.219411 0.600000 0.300000 0.000000
0.095787 -0.010325 0.169085 0.600000 0.000000 0.300000
-0.526352 -0.031473 0.242656 0.600000 0.000000 0.300000
-0.356388 0.232026 0.516881 0.500000 0.000000 0.500000
0.475913 0.525524 0.551455 0.500000 0.000000 0.500000
-0.560926 0.058439 -0.484285 0.600000 0.000000 0.300000
-0.526352 -0.634827 -0.032233 0.600000 0.000000 0.300000
0.280511 0.035773 0.328883 0.600000 0.000000 0.300000
0.510848 0.613719 0.276114 0.300000 0.600000 0.000000
-0.089125 -0.681306 -0.511023 0.600000 0.300000 0.000000
0.346562 -0.681306 -0.253542 0.600000 0.300000 0.000000
-0.526352 -0.149798 0.264912 0.600000 0.000000 0.300000
-0.048014 0.712506 0.496301 0.300000 0.000000 0.600000
0.510848 -0.457323 0.322455 0.300000 0.600000 0.000000
-0.526352 0.438643 0.429354 0.600000 0.000000 0.300000
-0.526352 -0.241279 0.308308 0.600000 0.000000 0.300000
0.421723 0.035773 0.096254 0.600000 0.000000 0.300000
-0.032090 0.548669 -0.511675 0.000000 0.000000 1.000000
0.095790 -0.010325 -0.446119 0.600000 0.000000 0.300000
0.380510 -0.156315 0.551455 0.500000 0.000000 0.500000
-0.402491 -0.010325 -0.041940 0.600000 0.000000 0.300000
-0.560926 0.177095 0.311402 0.600000 0.000000 0.300000
0.231651 0.035773 -0.112318 0.600000 0.000000 0.300000
-0.375534 -0.441077 -0.546249 0.800000 0.200000 0.500000
0.252245 -0.681306 0.303696 0.600000 0.300000 0.000000
-0.035498 0.110726 0.516881 0.500000 0.000000 0.500000
0.034828 0.035773 0.400772 0.600000 0.000000 0.300000
0.510848 -0.196981 -0.143137 0.300000 0.600000 0.000000
-0.354737 0.035773 -0.474867 0.600000 0.000000 0.300000
0.017504 0.035773 -0.131095 0.600000 0.000000 0.300000
0.510848 -0.087494 0.086935 0.300000 0.600000 0.000000
-0.390933 0.035773 -0.154591 0.600000 0.000000 0.300000
0.545421 -0.568801 0.359700 0.300000 0.600000 0.000000
-0.560926 0.672120 -0.273581 0.600000 0.000000 0.300000
0.212425 -0.143772 -0.511675 0.300000 0.000000 0.600000
0.219488 0.097035 0.551455 0.500000 0.000000 0.500000
0.283686 0.426405 0.516881 0.500000 0.000000 0.500000
-0.053688 -0.635209 -0.406255 0.600000 0.300000 0.000000
-0.299246 -0.189558 -0.511675 0.300000 0.000000 0.600000
0.510848 -0.199649 -0.040800 0.300000 0.600000 0.000000
-0.526352 -0.598311 0.160204 0.600000 0.000000 0.300000
-0.362968 0.274346 -0.500151 0.300000 0.000000 0.600000
-0.479030 0.666408 -0.508596 0.300000 0.000000 0.600000
-0.526352 0.214648 0.095674 0.600000 0.000000 0.300000
0.164091 -0.681306 0.319870 0.600000 0.300000 0.000000
-0.526352 0.507293 0.383842 0.600000 0.000000 0.300000
0.510848 -0.340774 0.222665 0.300000 0.600000 0.000000
0.542540 0.072221 0.547595 0.500000 0.000000 0.500000
0.100568 0.150162 0.516881 0.500000 0.000000 0.500000
-0.560926 0.175405 -0.511561 0.600000 0.000000 0.300000
0.375358 0.686250 -0.546249 0.300000 0.000000 0.600000
0.510848 -0.628545 0.144411 0.300000 0.600000 0.000000
-0.485918 0.666409 -0.347303 0.300000 0.000000 0.600000
-0.560926 -0.317156 -0.382498 0.600000 0.000000 0.300000
-0.466130 0.712506 0.368478 0.300000 0.000000 0.600000
0.510848 -0.598559 -0.481827 0.300000 0.600000 0.000000
0.410941 0.287920 0.516881 0.500000 0.000000 0.500000
-0.560926 0.296850 0.443809 0.600000 0.000000 0.300000
-0.346845 0.666409 -0.222598 0.300000 0.000000 0.600000
0.443538 0.666409 -0.380453 0.300000 0.000000 0.600000
-0.494627 0.712506 0.042161 0.300000 0.000000 0.600000
0.181086 0.666409 -0.094295 0.300000 0.000000 0.600000
-0.466951 -0.394492 0.551455 0.500000 0.000000 0.500000
0.065297 -0.587746 0.516881 0.500000 0.000000 0.500000
-0.560926 0.613421 0.353629 0.600000 0.000000 0.300000
-0.336644 0.712506 -0.261247 0.300000 0.000000 0.600000
-0.560926 -0.596172 0.359099 0.600000 0.000000 0.300000
-0.530289 0.704218 0.514000 0.600000 0.000000 0.300000
0.006346 0.035773 0.467310 0.600000 0.000000 0.300000
-0.019051 0.712506 0.013101 0.300000 0.000000 0.600000
-0.336188 0.712506 0.219227 0.300000 0.000000 0.600000
-0.099843 -0.635209 -0.207269 0.600000 0.300000 0.000000
-0.008472 0.147674 0.516881 0.500000 0.000000 0.500000
-0.250791 -0.635209 -0.436944 0.600000 0.300000 0.000000
-0.144616 0.035773 0.263126 0.600000 0.000000 0.300000
0.545421 0.052462 -0.510263 0.300000 0.600000 0.000000
-0.560926 -0.466092 0.327697 0.600000 0.000000 0.300000
0.150403 -0.485250 -0.511675 0.300000 0.000000 0.600000
-0.087932 0.646482 -0.546249 0.000000 0.000000 1.000000
0.108368 0.712506 0.454104 0.300000 0.000000 0.600000
-0.526352 -0.537476 0.512413 0.600000 0.000000 0.300000
-0.546437 -0.608958 0.516881 0.500000 0.000000 0.500000
-0.357912 0.666409 -0.309652 0.300000 0.000000 0.600000
0.510848 0.410090 0.152922 0.300000 0.600000 0.000000
0.510704 -0.636644 0.516881 0.500000 0.000000 0.500000
-0.560926 -0.080485 -0.116055 0.600000 0.000000 0.300000
0.378108 -0.681306 -0.457600 0.600000 0.300000 0.000000
0.260988 -0.060369 0.551455 0.500000 0.000000 0.500000
-0.556484 0.087303 0.551455 0.500000 0.000000 0.500000
-0.053841 -0.010325 0.144144 0.600000 0.000000 0.300000
-0.082790 -0.383736 0.516881 0.500000 0.000000 0.500000
0.510848 0.487826 0.416572 0.300000 0.600000 0.000000
0.545421 0.499438 -0.310747 0.300000 0.600000 0.000000
0.219692 -0.332326 0.551455 0.500000 0.000000 0.500000
0.104555 -0.635209 -0.334113 0.600000 0.300000 0.000000
-0.436450 0.666409 0.364597 0.300000 0.000000 0.600000
0.317490 0.497597 -0.546249 0.000000 0.000000 1.000000
-0.430633 0.035773 0.008493 0.600000 0.000000 0.300000
0.338991 -0.627243 -0.511675 0.800000 0.200000 0.500000
0.039687 -0.010325 -0.047550 0.600000 0.000000 0.300000
0.519797 -0.672340 0.551455 0.500000 0.000000 0.500000
0.111894 0.593472 0.551455 0.500000 0.000000 0.500000
-0.441161 0.035773 -0.263746 0.600000 0.000000 0.300000
0.510848 -0.513468 -0.193209 0.300000 0.600000 0.000000
-0.410304 0.712506 0.489511 0.300000 0.000000 0.600000
0.545421 0.462355 -0.506707 0.300000 0.600000 0.000000
-0.560926 -0.565554 -0.085007 0.600000 0.000000 0.300000
0.510848 0.496667 -0.054510 0.300000 0.600000 0.000000
0.274052 -0.010325 0.426293 0.600000 0.000000 0.300000
0.436532 -0.010325 0.136071 0.600000 0.000000 0.300000
-0.113831 0.686685 0.516881 0.500000 0.000000 0.500000
0.534480 -0.186106 0.516881 0.500000 0.000000 0.500000
0.451541 0.035773 0.066098 0.600000 0.000000 0.300000
0.354252 -0.681306 -0.070621 0.600000 0.300000 0.000000
-0.179902 0.605479 -0.511675 0.300000 0.000000 0.600000
-0.526352 0.311353 -0.018720 0.600000 0.000000 0.300000
0.507707 0.391902 0.551455 0.500000 0.000000 0.500000
0.220746 0.448131 0.516881 0.500000 0.000000 0.500000
-0.560926 0.687203 0.359435 0.600000 0.000000 0.300000
0.513468 0.532043 0.551455 0.500000 0.000000 0.500000
-0.492637 -0.635209 -0.090085 0.600000 0.300000 0.000000
0.545421 -0.534920 -0.237400 0.300000 0.600000 0.000000
-0.069644 -0.022758 -0.500151 0.300000 0.000000 0.600000
-0.430816 0.577756 -0.511675 0.000000 0.000000 1.000000
-0.560926 0.034528 -0.270305 0.600000 0.000000 0.300000
-0.111297 -0.635209 -0.311016 0.600000 0.300000 0.000000
0.390768 -0.635209 0.328937 0.600000 0.300000 0.000000
-0.362936 -0.230777 0.551455 0.500000 0.000000 0.500000
-0.560926 -0.509871 -0.154499 0.600000 0.000000 0.300000
-0.526352 0.441856 -0.330105 0.600000 0.000000 0.300000
0.283786 -0.010325 -0.390553 0.600000 0.000000 0.300000
0.510848 0.601782 -0.297203 0.300000 0.600000 0.000000
-0.526352 -0.121786 -0.077673 0.600000 0.000000 0.300000
-0.078483 0.101704 0.551455 0.500000 0.000000 0.500000
-0.339767 0.666409 0.474399 0.300000 0.000000 0.600000
-0.110551 -0.010325 0.299264 0.600000 0.000000 0.300000
-0.103476 0.666409 0.182941 0.300000 0.000000 0.600000
-0.060727 -0.069567 -0.500151 0.300000 0.000000 0.600000
-0.350951 -0.635209 0.420796 0.600000 0.300000 0.000000
0.395291 0.035773 0.254747 0.600000 0.000000 0.300000
0.116401 0.567228 -0.511675 0.300000 0.000000 0.600000
-0.378214 0.712506 0.285165 0.300000 0.000000 0.600000
-0.370449 0.063110 0.516881 0.500000 0.000000 0.500000
0.416170 -0.496816 0.551455 0.500000 0.000000 0.500000
-0.301132 -0.635209 0.467095 0.600000 0.300000 0.000000
-0.282436 -0.035888 0.516881 0.500000 0.000000 0.500000
-0.435342 -0.681306 0.012941 0.600000 0.300000 0.000000
0.406781 0.035773 -0.430359 0.600000 0.000000 0.300000
-0.526352 -0.608209 0.271546 0.600000 0.000000 0.300000
-0.527657 0.346519 -0.546249 0.600000 0.000000 0.300000
-0.475417 0.258821 0.551455 0.500000 0.000000 0.500000
0.545421 -0.467389 0.450643 0.300000 0.600000 0.000000
-0.282060 -0.681306 -0.233297 0.600000 0.300000 0.000000
-0.560926 0.136896 0.205957 0.600000 0.000000 0.300000
0.150113 0.712506 -0.255652 0.300000 0.000000 0.600000
0.220913 -0.681306 0.430623 0.600000 0.300000 0.000000
-0.095987 -0.585983 -0.511675 0.300000 0.000000 0.600000
0.545421 0.333803 0.483721 0.300000 0.600000 0.000000
0.240258 -0.006628 -0.500151 0.300000 0.000000 0.600000
-0.362749 0.080795 -0.511675 0.300000 0.000000 0.600000
-0.245649 0.665100 0.551455 0.500000 0.000000 0.500000
0.267909 0.575939 -0.511675 0.300000 0.000000 0.600000
-0.130016 0.712506 0.085897 0.300000 0.000000 0.600000
0.021319 0.640972 0.516881 0.500000 0.000000 0.500000
0.154367 0.035773 -0.118215 0.600000 0.000000 0.300000
-0.239923 -0.635209 -0.184968 0.600000 0.300000 0.000000
-0.560926 -0.668052 -0.023578 0.600000 0.000000 0.300000
0.117315 0.173324 -0.511675 0.300000 0.000000 0.600000
0.510848 0.195137 0.419978 0.300000 0.600000 0.000000
-0.197562 0.370249 -0.511675 0.300000 0.000000 0.600000
0.545421 0.299841 -0.355082 0.300000 0.600000 0.000000
0.128687 0.445482 0.551455 0.500000 0.000000 0.500000
-0.419034 0.046797 0.551455 0.500000 0.000000 0.500000
0.452408 -0.681306 -0.442184 0.600000 0.300000 0.000000
0.118677 -0.463180 0.551455 0.500000 0.000000 0.500000
-0.526352 0.402541 -0.383560 0.600000 0.000000 0.300000
-0.132872 -0.010325 0.389080 0.600000 0.000000 0.300000
-0.526352 -0.668812 -0.308290 0.600000 0.000000 0.300000
-0.560926 0.206880 0.137523 0.600000 0.000000 0.300000
0.510848 0.470877 0.380080 0.300000 0.600000 0.000000
-0.560926 0.427357 -0.310545 0.600000 0.000000 0.300000
-0.526352 0.511300 -0.302958 0.600000 0.000000 0.300000
-0.079450 0.538350 -0.546249 0.000000 0.000000 1.000000
0.510848 -0.309600 0.146795 0.300000 0.600000 0.000000
-0.560926 0.470993 0.248070 0.600000 0.000000 0.300000
-0.191392 -0.287645 -0.500151 0.300000 0.000000 0.600000
-0.526352 0.090892 -0.264004 0.600000 0.000000 0.300000
-0.214110 -0.010325 0.308608 0.600000 0.000000 0.300000
-0.560926 0.573025 -0.537954 0.600000 0.000000 0.300000
0.518724 0.452163 0.551455 0.500000 0.000000 0.500000
-0.249870 -0.635209 0.341767 0.600000 0.300000 0.000000
-0.506327 0.247616 0.516881 0.500000 0.000000 0.500000
-0.542516 -0.681306 0.419680 0.600000 0.000000 0.300000
-0.419485 -0.681306 0.536001 0.500000 0.000000 0.500000
-0.526352 -0.226313 0.510747 0.600000 0.000000 0.300000
-0.560926 0.645433 -0.136376 0.600000 0.000000 0.300000
-0.560926 -0.094776 -0.529123 0.600000 0.000000 0.300000
-0.264787 0.666409 0.466217 0.300000 0.000000 0.600000
0.362168 -0.681306 0.257344 0.600000 0.300000 0.000000
0.240064 -0.372792 0.516881 0.500000 0.000000 0.500000
-0.526352 -0.253625 0.095189 0.600000 0.000000 0.300000
-0.232099 -0.635209 -0.346734 0.600000 0.300000 0.000000
-0.560926 0.030076 0.302862 0.600000 0.000000 0.300000
-0.255969 -0.503217 0.551455 0.500000 0.000000 0.500000
-0.526352 -0.266980 0.026367 0.600000 0.000000 0.300000
-0.348676 -0.518320 -0.511675 0.300000 0.000000 0.600000
-0.526352 -0.423938 -0.152111 0.600000 0.000000 0.300000
-0.028802 0.035773 0.131836 0.600000 0.000000 0.300000
-0.526352 0.400503 0.367578 0.600000 0.000000 0.300000
0.510848 0.311533 0.023323 0.300000 0.600000 0.000000
-0.526352 0.107318 -0.545725 0.600000 0.000000 0.300000
0.033424 0.443799 -0.500151 0.300000 0.000000 0.600000
0.510848 0.691008 -0.315380 0.300000 0.600000 0.000000
0.338545 -0.681306 0.517089 0.500000 0.000000 0.500000
-0.072571 0.463097 0.516881 0.500000 0.000000 0.500000
-0.161163 0.712506 -0.534339 0.300000 0.000000 0.600000
0.252026 0.663048 0.551455 0.500000 0.000000 0.500000
0.545421 -0.549210 -0.160481 0.300000 0.600000 0.000000
-0.493308 -0.681306 0.518531 0.500000 0.000000 0.500000
-0.272244 0.661067 -0.511675 0.000000 0.000000 1.000000
0.510848 0.329167 0.168165 0.300000 0.600000 0.000000
0.510848 0.054926 -0.144053 0.300000 0.600000 0.000000
0.545421 -0.254179 0.037431 0.300000 0.600000 0.000000
-0.560926 -0.084437 -0.459962 0.600000 0.000000 0.300000
-0.476454 0.219584 0.551455 0.500000 0.000000 0.500000
0.545421 0.096406 -0.482764 0.300000 0.600000 0.000000
-0.060890 -0.635209 -0.201194 0.600000 0.300000 0.000000
-0.031838 0.666409 0.052428 0.300000 0.000000 0.600000
0.283936 0.035773 0.150710 0.600000 0.000000 0.300000
-0.526352 0.582993 0.208333 0.600000 0.000000 0.300000
0.475602 0.712506 0.500158 0.300000 0.000000 0.600000
-0.482996 0.666409 -0.050014 0.300000 0.000000 0.600000
0.510848 -0.228934 0.065407 0.300000 0.600000 0.000000
0.034692 0.712506 0.270210 0.300000 0.000000 0.600000
0.086950 -0.635209 -0.129842 0.600000 0.300000 0.000000
0.510848 -0.428808 -0.251447 0.300000 0.600000 0.000000
0.460145 -0.147248 0.516881 0.500000 0.000000 0.500000
0.180796 0.317701 0.516881 0.500000 0.000000 0.500000
-0.526352 -0.041700 -0.443109 0.600000 0.000000 0.300000
0.510848 -0.183969 0.104401 0.300000 0.600000 0.000000
0.297163 -0.681306 0.233704 0.600000 0.300000 0.000000
-0.560926 -0.179241 0.073697 0.600000 0.000000 0.300000
-0.483264 -0.010325 0.434580 0.600000 0.000000 0.300000
0.227313 -0.081678 0.516881 0.500000 0.000000 0.500000
0.284090 0.712506 0.045597 0.300000 0.000000 0.600000
0.510848 0.456004 -0.393519 0.300000 0.600000 0.000000
0.096998 -0.010325 -0.276314 0.600000 0.000000 0.300000
-0.196669 -0.681306 0.166174 0.600000 0.300000 0.000000
0.334651 0.712506 -0.381886 0.300000 0.000000 0.600000
0.334510 0.675559 0.551455 0.500000 0.000000 0.500000
-0.319158 0.492295 0.516881 0.500000 0.000000 0.500000
0.197815 -0.635209 -0.450478 0.600000 0.300000 0.000000
-0.560926 -0.639381 -0.333317 0.600000 0.000000 0.300000
-0.238590 -0.384282 0.516881 0.500000 0.000000 0.500000
0.430991 -0.681306 0.309672 0.600000 0.300000 0.000000
-0.158565 0.035773 -0.045410 0.600000 0.000000 0.300000
-0.340525 0.712506 -0.119890 0.300000 0.000000 0.600000
-0.179713 0.025345 0.551455 0.500000 0.000000 0.500000
0.388333 -0.538672 0.551455 0.500000 0.000000 0.500000
-0.260342 0.712506 0.117377 0.300000 0.000000 0.600000
-0.446525 0.035773 -0.111586 0.600000 0.000000 0.300000
-0.526352 -0.074803 -0.367675 0.600000 0.000000 0.300000
-0.467701 -0.505566 -0.546249 0.800000 0.200000 0.500000
-0.526352 -0.602874 -0.398734 0.600000 0.000000 0.300000
0.014994 -0.635209 -0.420835 0.600000 0.300000 0.000000
0.045751 -0.614644 0.551455 0.500000 0.000000 0.500000
-0.526352 0.072871 -0.394401 0.600000 0.000000 0.300000
-0.526352 0.671684 -0.410367 0.600000 0.000000 0.300000
0.062203 0.194648 -0.500151 0.300000 0.000000 0.600000
0.492816 -0.313694 0.551455 0.500000 0.000000 0.500000
-0.560926 0.203704 0.507544 0.600000 0.000000 0.300000
-0.298834 0.035773 0.195384 0.600000 0.000000 0.300000
-0.408759 0.435911 0.551455 0.500000 0.000000 0.500000
-0.306044 -0.635209 -0.026739 0.600000 0.300000 0.000000
-0.178267 -0.488250 -0.511675 0.300000 0.000000 0.600000
-0.560926 0.670476 0.478775 0.600000 0.000000 0.300000
-0.526352 -0.663925 0.237810 0.600000 0.000000 0.300000
0.510848 -0.174573 -0.538219 0.300000 0.600000 0.000000
-0.317340 -0.010325 -0.474121 0.600000 0.000000 0.300000
0.140326 0.094984 -0.511675 0.300000 0.000000 0.600000
0.001380 -0.010325 0.232837 0.600000 0.000000 0.300000
0.510848 -0.382239 -0.531097 0.300000 0.600000 0.000000
-0.560926 -0.349778 -0.245069 0.600000 0.000000 0.300000
0.510848 -0.339666 0.281781 0.300000 0.600000 0.000000
-0.180846 0.035773 -0.433376 0.600000 0.000000 0.300000
0.313254 0.035773 -0.087237 0.600000 0.000000 0.300000
-0.560926 -0.370726 -0.097381 0.600000 0.000000 0.300000
0.278842 0.666409 0.041277 0.300000 0.000000 0.600000
-0.060668 -0.244366 -0.500151 0.300000 0.000000 0.600000
-0.560926 -0.118793 -0.450949 0.600000 0.000000 0.300000
-0.282678 -0.231900 -0.511675 0.300000 0.000000 0.600000
0.252552 0.057285 -0.500151 0.300000 0.000000 0.600000
-0.135062 -0.681306 0.357197 0.600000 0.300000 0.000000
0.266984 -0.010325 0.364754 0.600000 0.000000 0.300000
0.153860 0.035773 -0.049295 0.600000 0.000000 0.300000
-0.033236 0.103480 -0.511675 0.300000 0.000000 0.600000
0.545421 0.420522 -0.238443 0.300000 0.600000 0.000000
0.454922 -0.004988 0.551455 0.500000 0.000000 0.500000
-0.526352 0.402267 -0.196827 0.600000 0.000000 0.300000
-0.490176 0.712506 -0.368732 0.300000 0.000000 0.600000
-0.560926 0.190717 -0.231013 0.600000 0.000000 0.300000
-0.427855 -0.604373 0.516881 0.500000 0.000000 0.500000
-0.526352 -0.520454 0.194143 0.600000 0.000000 0.300000
0.304255 -0.299004 0.516881 0.500000 0.000000 0.500000
0.303534 -0.553606 -0.546249 0.800000 0.200000 0.500000
-0.014408 0.622331 0.551455 0.500000 0.000000 0.500000
0.545421 -0.490909 -0.272655 0.300000 0.600000 0.000000
-0.560926 0.259564 0.460697 0.600000 0.000000 0.300000
-0.232297 0.035773 -0.487058 0.600000 0.000000 0.300000
-0.098574 0.186107 0.551455 0.500000 0.000000 0.500000
-0.526352 0.711971 0.476171 0.300000 0.000000 0.600000
-0.015266 0.712506 0.252722 0.300000 0.000000 0.600000
0.084644 -0.681306 -0.061863 0.600000 0.300000 0.000000
-0.526352 0.677719 0.019061 0.300000 0.000000 0.600000
-0.149693 -0.404720 -0.530670 0.800000 0.200000 0.500000
0.135961 -0.184609 0.516881 0.500000 0.000000 0.500000
0.036042 0.666409 0.261429 0.300000 0.000000 0.600000
-0.526352 0.566562 -0.300191 0.600000 0.000000 0.300000
-0.560926 -0.541240 0.342955 0.600000 0.000000 0.300000
-0.281500 -0.586782 -0.500151 0.300000 0.000000 0.600000
-0.257631 0.666409 0.309596 0.300000 0.000000 0.600000
0.479029 -0.635209 0.390490 0.600000 0.300000 0.000000
-0.560926 0.231234 0.202798 0.600000 0.000000 0.300000
-0.409985 0.479189 -0.511675 0.300000 0.000000 0.600000
0.545421 0.049483 0.461701 0.300000 0.600000 0.000000
0.510848 -0.217274 0.140190 0.300000 0.600000 0.000000
0.380821 0.583850 -0.546249 0.000000 0.000000 1.000000
-0.228981 0.712506 -0.110970 0.300000 0.000000 0.600000
0.187714 -0.054324 0.551455 0.500000 0.000000 0.500000
0.076605 -0.271263 0.516881 0.500000 0.000000 0.500000
-0.560926 0.138045 0.160086 0.600000 0.000000 0.300000
-0.008519 0.301906 0.551455 0.500000 0.000000 0.500000
0.372307 0.712506 0.196935 0.300000 0.000000 0.600000
-0.560926 0.608287 -0.370551 0.600000 0.000000 0.300000
-0.072530 0.712506 0.196402 0.300000 0.000000 0.600000
0.444299 0.712506 -0.027625 0.300000 0.000000 0.600000
0.121537 0.035773 -0.067294 0.600000 0.000000 0.300000
0.510848 -0.266639 -0.138078 0.300000 0.600000 0.000000
0.510848 0.257783 -0.124901 0.300000 0.600000 0.000000
-0.526352 0.168111 0.102338 0.600000 0.000000 0.300000
0.510848 0.486022 -0.259764 0.300000 0.600000 0.000000
-0.560926 -0.332367 -0.033303 0.600000 0.000000 0.300000
0.545421 -0.027331 0.496661 0.300000 0.600000 0.000000
0.510848 -0.573617 -0.336156 0.300000 0.600000 0.000000
-0.296124 0.192241 0.516881 0.500000 0.000000 0.500000
-0.526352 0.081420 0.505229 0.600000 0.000000 0.300000
0.542540 0.667444 0.519647 0.500000 0.000000 0.500000
-0.544221 -0.160948 0.551455 0.500000 0.000000 0.500000
-0.178099 0.503241 -0.546249 0.000000 0.000000 1.000000
-0.014931 -0.635209 0.151325 0.600000 0.300000 0.000000
-0.181757 0.666409 -0.139302 0.300000 0.000000 0.600000
-0.360545 -0.028465 0.551455 0.500000 0.000000 0.500000
-0.526352 -0.036791 0.446267 0.600000 0.000000 0.300000
-0.347180 0.035773 0.491745 0.600000 0.000000 0.300000
0.545421 0.196773 -0.288563 0.300000 0.600000 0.000000
-0.154538 0.035773 0.135705 0.600000 0.000000 0.300000
0.510848 0.413542 0.384293 0.300000 0.600000 0.000000
0.510848 -0.661307 -0.029560 0.600000 0.300000 0.000000
-0.558045 0.604321 0.535257 0.500000 0.000000 0.500000
0.510848 0.277092 0.025269 0.300000 0.600000 0.000000
0.377325 0.666409 -0.515203 0.000000 0.000000 1.000000
-0.524130 0.148073 0.551455 0.500000 0.000000 0.500000
-0.165895 0.435920 -0.511945 0.000000 0.000000 1.000000
0.298645 0.035773 0.426725 0.600000 0.000000 0.300000
0.439262 0.712506 0.174759 0.300000 0.000000 0.600000
0.545421 -0.213035 -0.196258 0.300000 0.600000 0.000000
0.545421 0.212038 0.351903 0.300000 0.600000 0.000000
-0.334709 -0.635209 -0.370605 0.600000 0.300000 0.000000
-0.526352 0.012422 0.464316 0.600000 0.000000 0.300000
0.510848 -0.154705 0.086564 0.300000 0.600000 0.000000
0.062867 -0.010325 -0.171674 0.600000 0.000000 0.300000
-0.451859 -0.049291 0.551455 0.500000 0.000000 0.500000
0.545421 0.428810 -0.414227 0.300000 0.600000 0.000000
0.124880 0.706754 0.538092 0.500000 0.000000 0.500000
0.373261 0.426435 0.551455 0.500000 0.000000 0.500000
0.163235 0.666409 -0.435778 0.300000 0.000000 0.600000
0.399102 -0.681306 0.519306 0.500000 0.000000 0.500000
0.113912 0.712506 -0.362137 0.300000 0.000000 0.600000
-0.416734 -0.287693 0.516881 0.500000 0.000000 0.500000
-0.422431 0.712506 -0.334553 0.300000 0.000000 0.600000
0.149688 -0.237587 -0.500151 0.300000 0.000000 0.600000
0.450595 0.035773 0.123476 0.600000 0.000000 0.300000
-0.426724 -0.209439 0.516881 0.500000 0.000000 0.500000
0.125667 -0.681306 0.371047 0.600000 0.300000 0.000000
-0.335695 -0.404720 -0.541400 0.800000 0.200000 0.500000
-0.419792 -0.635209 0.416883 0.600000 0.300000 0.000000
-0.248064 -0.122944 -0.500151 0.300000 0.000000 0.600000
0.545421 0.380659 -0.470555 0.300000 0.600000 0.000000
-0.401503 -0.681306 0.348114 0.600000 0.300000 0.000000
-0.100321 0.460067 -0.500151 0.300000 0.000000 0.600000
0.145131 -0.635209 -0.519345 0.800000 0.200000 0.500000
-0.560926 -0.069813 0.124426 0.600000 0.000000 0.300000
-0.560926 -0.308687 0.217145 0.600000 0.000000 0.300000
-0.526352 -0.652253 -0.206025 0.600000 0.000000 0.300000
-0.075003 0.112210 -0.511675 0.300000 0.000000 0.600000
-0.065360 -0.608076 -0.546249 0.800000 0.200000 0.500000
0.175073 0.712506 -0.027515 0.300000 0.000000 0.600000
-0.526352 -0.394954 -0.073994 0.600000 0.000000 0.300000
0.266479 0.502138 -0.546249 0.000000 0.000000 1.000000
-0.560926 0.607064 -0.255413 0.600000 0.000000 0.300000
-0.337707 -0.010325 0.304701 0.600000 0.000000 0.300000
-0.411593 -0.557588 0.551455 0.500000 0.000000 0.500000
0.384281 0.642576 0.516881 0.500000 0.000000 0.500000
0.434906 0.666409 0.143398 0.300000 0.000000 0.600000
0.545421 -0.396232 -0.279351 0.300000 0.600000 0.000000
-0.175438 -0.010325 0.164252 0.600000 0.000000 0.300000
-0.526352 -0.167884 -0.260558 0.600000 0.000000 0.300000
0.076259 -0.457863 -0.511675 0.800000 0.200000 0.500000
-0.560926 0.196168 -0.151609 0.600000 0.000000 0.300000
-0.526352 0.318196 -0.129697 0.600000 0.000000 0.300000
0.545421 0.205254 -0.074230 0.300000 0.600000 0.000000
0.092131 0.666409 -0.043253 0.300000 0.000000 0.600000
-0.526352 -0.389009 0.491122 0.600000 0.000000 0.300000
0.510848 -0.613049 -0.352851 0.300000 0.600000 0.000000
-0.442505 0.455894 0.516881 0.500000 0.000000 0.500000
0.545421 0.705192 0.378222 0.300000 0.600000 0.000000
-0.170522 -0.635209 -0.359670 0.600000 0.300000 0.000000
0.232921 0.712506 0.050584 0.300000 0.000000 0.600000
-0.282408 -0.408788 -0.511675 0.300000 0.000000 0.600000
-0.416439 -0.190148 -0.511675 0.300000 0.000000 0.600000
-0.526352 -0.036434 -0.260988 0.600000 0.000000 0.300000
0.171503 0.666409 -0.540713 0.000000 0.000000 1.000000
-0.442181 -0.681306 -0.179766 0.600000 0.300000 0.000000
0.545421 -0.441959 0.058850 0.300000 0.600000 0.000000
-0.560926 -0.519221 -0.431994 0.600000 0.000000 0.300000
-0.218516 -0.635209 -0.269151 0.600000 0.300000 0.000000
-0.441158 0.155520 -0.500151 0.300000 0.000000 0.600000
0.205720 -0.635209 0.265977 0.600000 0.300000 0.000000
0.411480 0.035773 -0.097177 0.600000 0.000000 0.300000
-0.494233 0.666409 0.065605 0.300000 0.000000 0.600000
-0.196313 0.712506 -0.384560 0.300000 0.000000 0.600000
-0.185573 0.666409 0.245579 0.300000 0.000000 0.600000
-0.356413 -0.214180 -0.500151 0.300000 0.000000 0.600000
0.448904 0.152398 0.616674 0.000000 0.500000 0.500000
0.288638 -0.072261 0.516881 0.500000 0.000000 0.500000
0.480005 0.666409 0.027953 0.300000 0.000000 0.600000
0.022997 0.248973 -0.500151 0.300000 0.000000 0.600000
0.108901 0.035773 0.104863 0.600000 0.000000 0.300000
-0.283695 0.557339 0.516881 0.500000 0.000000 0.500000
-0.352225 -0.010325 0.385372 0.600000 0.000000 0.300000
-0.495078 -0.575215 -0.546249 0.800000 0.200000 0.500000
0.510848 -0.083361 0.368539 0.300000 0.600000 0.000000
0.491469 0.712506 -0.097799 0.300000 0.000000 0.600000
-0.056758 0.623524 -0.511675 0.000000 0.000000 1.000000
0.384731 0.231895 0.516881 0.500000 0.000000 0.500000
-0.560926 0.387908 0.481855 0.600000 0.000000 0.300000
-0.526352 -0.482558 -0.514913 0.600000 0.000000 0.300000
0.545421 0.425708 -0.009887 0.300000 0.600000 0.000000
-0.526352 0.169221 0.187088 0.600000 0.000000 0.300000
0.120707 -0.016605 0.551455 0.500000 0.000000 0.500000
-0.194822 0.035773 0.239887 0.600000 0.000000 0.300000
0.235062 -0.189942 -0.511675 0.300000 0.000000 0.600000
-0.491211 0.596013 -0.500151 0.300000 0.000000 0.600000
0.510848 -0.267023 0.466224 0.300000 0.600000 0.000000
-0.313101 -0.143242 -0.511675 0.300000 0.000000 0.600000
0.210175 0.551937 0.516881 0.500000 0.000000 0.500000
0.510848 -0.133773 -0.157637 0.300000 0.600000 0.000000
0.459473 -0.681306 0.093128 0.600000 0.300000 0.000000
0.478387 -0.010325 0.064823 0.600000 0.000000 0.300000
0.000306 0.035773 -0.079079 0.600000 0.000000 0.300000
-0.054167 0.712506 -0.461432 0.300000 0.000000 0.600000
0.435108 0.541221 0.551455 0.500000 0.000000 0.500000
-0.120687 0.016823 -0.500151 0.300000 0.000000 0.600000
-0.476591 -0.681306 0.487538 0.600000 0.300000 0.000000
0.531029 0.643571 0.551455 0.500000 0.000000 0.500000
-0.180340 -0.027473 -0.511675 0.300000 0.000000 0.600000
-0.173717 -0.525204 -0.511675 0.800000 0.200000 0.500000
0.431462 -0.681306 -0.513886 0.600000 0.300000 0.000000
0.044448 -0.373568 -0.511675 0.300000 0.000000 0.600000
-0.560926 -0.659091 0.073976 0.600000 0.000000 0.300000
-0.187313 -0.635209 -0.313219 0.600000 0.300000 0.000000
-0.241490 0.567174 -0.511675 0.300000 0.000000 0.600000
0.510848 0.287176 -0.149666 0.300000 0.600000 0.000000
-0.290706 -0.079280 0.516881 0.500000 0.000000 0.500000
0.406958 -0.681306 -0.127607 0.600000 0.300000 0.000000
-0.404970 0.278889 0.516881 0.500000 0.000000 0.500000
0.510848 0.011702 -0.195634 0.600000 0.000000 0.300000
-0.526352 0.003631 -0.387022 0.600000 0.000000 0.300000
0.371011 0.546288 0.516881 0.500000 0.000000 0.500000
0.395009 -0.010325 -0.308172 0.600000 0.000000 0.300000
0.542540 -0.252875 0.532999 0.500000 0.000000 0.500000
-0.560926 0.604435 -0.313879 0.600000 0.000000 0.300000
0.545421 -0.262053 0.278480 0.300000 0.600000 0.000000
-0.526352 0.554055 -0.042484 0.600000 0.000000 0.300000
-0.259382 0.666409 -0.393443 0.300000 0.000000 0.600000
-0.080514 -0.010325 -0.107043 0.600000 0.000000 0.300000
0.075801 0.712506 -0.371185 0.300000 0.000000 0.600000
0.428537 0.035773 0.195127 0.600000 0.000000 0.300000
0.545421 -0.647413 0.151846 0.300000 0.600000 0.000000
0.545421 0.161708 0.073134 0.300000 0.600000 0.000000
0.012017 0.461144 0.551455 0.500000 0.000000 0.500000
0.440381 0.110570 0.551455 0.500000 0.000000 0.500000
0.119232 -0.010325 -0.189613 0.600000 0.000000 0.300000
-0.506471 0.712506 -0.011992 0.300000 0.000000 0.600000
0.031083 -0.010984 0.516881 0.500000 0.000000 0.500000
-0.560926 0.433795 -0.021443 0.600000 0.000000 0.300000
-0.526352 -0.312917 -0.460415 0.600000 0.000000 0.300000
0.509078 0.712506 0.331455 0.300000 0.000000 0.600000
-0.560926 0.633675 0.411802 0.600000 0.000000 0.300000
-0.476346 0.108153 0.551455 0.500000 0.000000 0.500000
-0.215096 0.035773 0.165932 0.600000 0.000000 0.300000
-0.373131 -0.304008 0.551455 0.500000 0.000000 0.500000
-0.227370 0.666409 0.492315 0.300000 0.000000 0.600000
0.386992 -0.537376 0.516881 0.500000 0.000000 0.500000
-0.560926 -0.530940 -0.514917 0.600000 0.000000 0.300000
0.545421 0.471953 0.471549 0.300000 0.600000 0.000000
-0.459407 -0.505229 0.551455 0.500000 0.000000 0.500000
0.036722 -0.249292 -0.500151 0.300000 0.000000 0.600000
0.193573 -0.361207 0.551455 0.500000 0.000000 0.500000
-0.154509 0.635815 -0.511675 0.000000 0.000000 1.000000
0.510848 -0.367436 0.384867 0.300000 0.600000 0.000000
0.397547 0.035773 0.377495 0.600000 0.000000 0.300000
0.510848 -0.616808 -0.451376 0.300000 0.600000 0.000000
-0.160846 -0.635209 -0.168561 0.600000 0.300000 0.000000
-0.525141 -0.421343 -0.511675 0.300000 0.000000 0.600000
0.319981 -0.635209 0.137569 0.600000 0.300000 0.000000
-0.526352 -0.474790 -0.446552 0.600000 0.000000 0.300000
-0.117409 -0.364435 0.516881 0.500000 0.000000 0.500000
0.148060 -0.010325 0.488342 0.600000 0.000000 0.300000
0.185757 0.035773 -0.410488 0.600000 0.000000 0.300000
0.545421 0.017188 -0.327998 0.300000 0.600000 0.000000
-0.420072 0.004436 0.516881 0.500000 0.000000 0.500000
0.510848 0.134158 -0.173398 0.300000 0.600000 0.000000
-0.118362 -0.314232 0.551455 0.500000 0.000000 0.500000
-0.124722 -0.681306 0.459336 0.600000 0.300000 0.000000
-0.526352 0.343713 0.472683 0.600000 0.000000 0.300000
-0.229121 0.712506 0.305597 0.300000 0.000000 0.600000
0.151847 0.666409 -0.211366 0.300000 0.000000 0.600000
-0.560926 -0.484062 0.039431 0.600000 0.000000 0.300000
-0.457000 0.326005 0.516881 0.500000 0.000000 0.500000
-0.272949 0.712506 -0.410305 0.300000 0.000000 0.600000
0.510848 0.095892 -0.278551 0.300000 0.600000 0.000000
0.253665 -0.635209 0.121342 0.600000 0.300000 0.000000
-0.440263 0.712506 0.321393 0.300000 0.000000 0.600000
0.318463 0.010541 0.516881 0.500000 0.000000 0.500000
0.510848 0.309462 -0.417058 0.300000 0.600000 0.000000
0.061936 0.583095 -0.511675 0.300000 0.000000 0.600000
0.013724 -0.635209 -0.059881 0.600000 0.300000 0.000000
0.545421 -0.153066 0.483736 0.300000 0.600000 0.000000
-0.526352 0.004115 -0.520777 0.600000 0.000000 0.300000
-0.327590 0.666409 -0.469010 0.300000 0.000000 0.600000
0.510848 -0.565241 0.479060 0.300000 0.600000 0.000000
0.288046 -0.117046 0.551455 0.500000 0.000000 0.500000
-0.064559 -0.623468 0.551455 0.500000 0.000000 0.500000
0.498419 0.322058 0.516881 0.500000 0.000000 0.500000
-0.288011 -0.681306 0.428121 0.600000 0.300000 0.000000
0.338046 -0.404720 -0.533109 0.800000 0.200000 0.500000
0.545421 -0.331630 -0.297558 0.300000 0.600000 0.000000
-0.526352 -0.062599 -0.204334 0.600000 0.000000 0.300000
-0.526352 0.252062 -0.522881 0.600000 0.000000 0.300000
0.545421 -0.319145 -0.467083 0.300000 0.600000 0.000000
-0.339742 -0.488524 0.516881 0.500000 0.000000 0.500000
-0.287611 0.035773 -0.306880 0.600000 0.000000 0.300000
0.352409 -0.635209 0.230107 0.600000 0.300000 0.000000
-0.560926 -0.448449 -0.310357 0.600000 0.000000 0.300000
0.545421 0.265361 0.241053 0.300000 0.600000 0.000000
0.115925 -0.010325 0.268268 0.600000 0.000000 0.300000
-0.318819 0.035773 -0.060766 0.600000 0.000000 0.300000
0.200955 0.121538 -0.511675 0.300000 0.000000 0.600000
0.545421 0.151515 0.308437 0.300000 0.600000 0.000000
-0.149085 -0.010325 -0.272136 0.600000 0.000000 0.300000
-0.380803 -0.478665 -0.500151 0.300000 0.000000 0.600000
0.463688 0.666409 0.448359 0.300000 0.000000 0.600000
-0.502248 0.035773 0.094383 0.600000 0.000000 0.300000
0.319768 0.035773 0.362015 0.600000 0.000000 0.300000
0.545421 0.226795 0.189095 0.300000 0.600000 0.000000
0.366803 0.666409 0.120696 0.300000 0.000000 0.600000
-0.184277 -0.635209 -0.065306 0.600000 0.300000 0.000000
0.510848 0.576536 -0.194352 0.300000 0.600000 0.000000
-0.560926 0.099194 -0.524769 0.600000 0.000000 0.300000
0.227719 0.712506 0.264089 0.300000 0.000000 0.600000
0.456360 0.489459 -0.500151 0.300000 0.000000 0.600000
0.163228 0.089871 0.551455 0.500000 0.000000 0.500000
0.017420 -0.681306 -0.054020 0.600000 0.300000 0.000000
-0.355928 -0.681306 0.496394 0.600000 0.300000 0.000000
0.299904 -0.358123 -0.511675 0.300000 0.000000 0.600000
0.111550 -0.147481 0.551455 0.500000 0.000000 0.500000
0.483561 0.666409 0.192348 0.300000 0.000000 0.600000
-0.560926 -0.197692 0.027243 0.600000 0.000000 0.300000
0.545421 0.137436 0.011175 0.300000 0.600000 0.000000
0.214211 -0.646276 -0.546249 0.600000 0.300000 0.000000
-0.527924 0.195000 -0.546249 0.600000 0.000000 0.300000
-0.237007 0.000322 -0.511675 0.300000 0.000000 0.600000
-0.026223 -0.328581 0.516881 0.500000 0.000000 0.500000
-0.526352 -0.082251 0.370066 0.600000 0.000000 0.300000
-0.560926 -0.483267 -0.411629 0.600000 0.000000 0.300000
0.510848 -0.461329 -0.022058 0.300000 0.600000 0.000000
0.545421 0.525617 -0.052418 0.300000 0.600000 0.000000
-0.526352 0.248461 0.408271 0.600000 0.000000 0.300000
-0.091109 0.390494 0.516881 0.500000 0.000000 0.500000
0.021477 -0.635209 -0.104895 0.600000 0.300000 0.000000
0.519541 -0.412735 0.514000 0.300000 0.600000 0.000000
-0.560926 -0.288898 -0.285048 0.600000 0.000000 0.300000
0.467109 -0.528562 0.516881 0.500000 0.000000 0.500000
0.085232 -0.010325 0.335609 0.600000 0.000000 0.300000
-0.497519 0.031111 0.551455 0.500000 0.000000 0.500000
-0.299131 0.568615 -0.511675 0.300000 0.000000 0.600000
-0.398142 0.035773 0.160323 0.600000 0.000000 0.300000
-0.560926 0.169944 0.457995 0.600000 0.000000 0.300000
-0.306067 0.712506 0.118019 0.300000 0.000000 0.600000
0.306336 -0.531819 0.551455 0.500000 0.000000 0.500000
0.302897 0.035773 0.078894 0.600000 0.000000 0.300000
-0.294991 0.466383 0.551455 0.500000 0.000000 0.500000
0.000779 -0.010325 0.366576 0.600000 0.000000 0.300000
0.068076 0.597765 0.551455 0.500000 0.000000 0.500000
-0.019170 -0.284812 -0.500151 0.300000 0.000000 0.600000
0.510848 0.698227 -0.470876 0.300000 0.600000 0.000000
-0.517949 -0.635209 -0.252870 0.600000 0.300000 0.000000
-0.048109 -0.681306 -0.138755 0.600000 0.300000 0.000000
-0.560926 0.111712 0.283231 0.600000 0.000000 0.300000
-0.133972 -0.681306 -0.519902 0.600000 0.300000 0.000000
0.545421 0.538643 0.238316 0.300000 0.600000 0.000000
-0.325405 -0.635209 -0.094838 0.600000 0.300000 0.000000
0.545421 0.285236 -0.478070 0.300000 0.600000 0.000000
-0.371818 0.550182 -0.511675 0.300000 0.000000 0.600000
-0.519330 0.035773 -0.098019 0.600000 0.000000 0.300000
-0.348360 -0.404317 0.516881 0.500000 0.000000 0.500000
0.510848 -0.578728 -0.158642 0.300000 0.600000 0.000000
-0.120080 -0.010325 -0.133776 0.600000 0.000000 0.300000
-0.204885 -0.477489 0.516881 0.500000 0.000000 0.500000
0.545421 -0.547438 -0.323182 0.300000 0.600000 0.000000
-0.129365 -0.635209 0.419138 0.600000 0.300000 0.000000
0.029339 0.607108 -0.511675 0.300000 0.000000 0.600000
0.372221 -0.328312 0.516881 0.500000 0.000000 0.500000
-0.560926 0.421118 -0.143107 0.600000 0.000000 0.300000
0.183748 -0.010325 0.130383 0.600000 0.000000 0.300000
0.510848 0.257635 -0.020849 0.300000 0.600000 0.000000
-0.529943 -0.359004 0.551455 0.500000 0.000000 0.500000
-0.190158 0.666409 -0.033832 0.300000 0.000000 0.600000
-0.488544 -0.380943 -0.511675 0.300000 0.000000 0.600000
0.234043 0.431314 -0.511675 0.300000 0.000000 0.600000
-0.411035 -0.625801 0.551455 0.500000 0.000000 0.500000
-0.086877 0.415406 -0.500151 0.300000 0.000000 0.600000
0.125802 -0.047592 0.516881 0.500000 0.000000 0.500000
-0.560926 0.092679 0.120995 0.600000 0.000000 0.300000
0.267662 0.035773 0.386394 0.600000 0.000000 0.300000
0.545421 0.644184 0.288636 0.300000 0.600000 0.000000
-0.327445 0.666409 0.056924 0.300000 0.000000 0.600000
-0.560926 0.648811 0.094974 0.600000 0.000000 0.300000
0.444515 -0.635209 0.066449 0.600000 0.300000 0.000000
0.182209 -0.635209 -0.519751 0.600000 0.300000 0.000000
0.472208 0.666409 -0.097899 0.300000 0.000000 0.600000
0.504794 -0.585168 -0.511675 0.300000 0.000000 0.600000
-0.280770 0.712506 -0.543493 0.300000 0.000000 0.600000
0.154226 -0.010325 -0.070367 0.600000 0.000000 0.300000
-0.211089 -0.635209 0.014964 0.600000 0.300000 0.000000
0.440249 -0.544417 -0.511675 0.300000 0.000000 0.600000
0.510848 -0.389832 -0.198306 0.300000 0.600000 0.000000
0.099384 -0.010325 -0.038610 0.600000 0.000000 0.300000
-0.269216 -0.635209 -0.483866 0.600000 0.300000 0.000000
-0.557936 0.272750 -0.546249 0.600000 0.000000 0.300000
0.224038 -0.681306 -0.111403 0.600000 0.300000 0.000000
0.262720 -0.010325 0.198014 0.600000 0.000000 0.300000
0.510848 -0.441151 -0.293307 0.300000 0.600000 0.000000
0.510848 0.625691 0.316799 0.300000 0.600000 0.000000
0.062219 -0.635209 0.340029 0.600000 0.300000 0.000000
