ply
format ascii 1.0
element vertex 1270
property float x
property float y
property float z
property uchar red
property uchar green
property uchar blue
end_header
-0.252442 -0.010325 -0.251264 153 0 76
-0.317935 0.712506 -0.118269 76 0 153
0.521044 -0.239828 -0.546249 76 153 0
-0.526352 0.570278 -0.163370 153 0 76
-0.560926 -0.033460 0.146732 153 0 76
-0.460082 0.175661 -0.511675 76 0 153
0.545421 -0.676627 0.455170 76 153 0
0.510848 0.355179 -0.262448 76 153 0
0.545421 0.566375 0.066953 76 153 0
0.146616 -0.681306 -0.040107 153 76 0
-0.560926 0.116704 0.106635 153 0 76
0.154250 0.625875 0.551455 127 0 127
0.292214 -0.681306 0.547126 127 0 127
0.271212 0.341318 -0.500151 76 0 153
0.113742 0.035773 0.040191 153 0 76
-0.526352 0.233608 0.448506 153 0 76
0.319330 0.437656 -0.546249 0 0 255
-0.560926 -0.243958 -0.484503 153 0 76
-0.132087 0.076512 0.551455 127 0 127
-0.526352 0.111388 0.459372 153 0 76
0.490516 -0.320364 0.551455 127 0 127
-0.066984 -0.097625 -0.511675 76 0 153
0.038485 -0.635209 -0.108436 153 76 0
0.545421 -0.353037 -0.026484 76 153 0
0.262692 -0.089848 -0.511675 76 0 153
-0.074697 -0.681306 0.468416 153 76 0
0.266161 0.639876 0.551455 127 0 127
0.545421 0.616334 0.473213 76 153 0
0.073872 -0.469411 -0.546249 204 51 127
-0.151386 0.035773 -0.210385 153 0 76
-0.333530 0.035773 0.261797 153 0 76
0.513100 0.214178 -0.546249 76 153 0
-0.147731 -0.635209 -0.052757 153 76 0
-0.364625 0.673059 0.551455 127 0 127
0.139832 0.410893 -0.511675 76 0 153
0.188637 -0.635209 -0.209573 153 76 0
-0.560926 -0.478866 0.408911 153 0 76
0.545421 -0.242148 0.399958 76 153 0
0.545421 0.480492 0.339191 76 153 0
0.225248 0.028926 0.551455 127 0 127
0.510848 -0.170623 0.227506 76 153 0
-0.471352 -0.681306 0.079559 153 76 0
0.545421 -0.403812 -0.205608 76 153 0
0.544950 -0.438049 -0.546249 76 153 0
0.016383 0.666409 0.327938 76 0 153
-0.560926 -0.528577 -0.544415 153 0 76
-0.088344 -0.281039 0.551455 127 0 127
0.343108 -0.681306 -0.467616 153 76 0
-0.395508 -0.681306 0.010329 153 76 0
0.545421 -0.346554 0.461041 76 153 0
-0.560926 0.359054 0.240093 153 0 76
0.510848 0.147150 0.310445 76 153 0
0.037117 0.035773 -0.142101 153 0 76
-0.560926 -0.064545 0.482991 153 0 76
-0.178096 0.607445 0.516881 127 0 127
-0.526352 -0.127272 0.320412 153 0 76
-0.526352 0.298274 0.377648 153 0 76
0.545421 0.518402 0.223104 76 153 0
-0.369973 0.666409 0.375826 76 0 153
-0.009779 0.533616 0.516881 127 0 127
0.462090 0.369399 -0.500151 76 0 153
-0.479327 0.511746 0.516881 127 0 127
-0.479969 0.061502 0.551455 127 0 127
0.485928 0.712506 -0.019862 76 0 153
-0.357497 0.462310 -0.500151 76 0 153
-0.560926 -0.347219 -0.451905 153 0 76
-0.078835 -0.255431 -0.511675 76 0 153
-0.472415 -0.668871 0.514000 127 0 127
0.510848 0.440656 -0.360902 76 153 0
-0.337674 0.666409 -0.213056 76 0 153
0.145213 0.035773 0.200650 153 0 76
0.116795 0.163225 -0.511675 76 0 153
0.178709 0.507348 -0.546249 0 0 255
-0.560926 -0.392853 -0.156434 153 0 76
-0.091130 0.396702 -0.511675 76 0 153
0.510848 0.010274 -0.532649 153 0 76
-0.560926 0.431052 0.171082 153 0 76
0.510848 -0.403752 0.222076 76 153 0
-0.235509 -0.006281 -0.500151 76 0 153
-0.072207 -0.635209 0.296553 153 76 0
-0.526352 0.467175 -0.011461 153 0 76
-0.523298 -0.681306 -0.104228 153 76 0
-0.065650 0.381417 0.551455 127 0 127
0.510848 -0.496283 0.159910 76 153 0
-0.060601 0.035773 -0.292256 153 0 76
0.433858 0.515585 0.516881 127 0 127
-0.030581 0.666409 -0.108113 76 0 153
-0.560926 -0.332657 0.124308 153 0 76
-0.560926 0.024384 0.416066 153 0 76
0.545421 0.326190 -0.453910 76 153 0
-0.560926 0.567728 -0.522756 153 0 76
-0.315444 0.666409 -0.380708 76 0 153
0.306201 0.402148 0.551455 127 0 127
0.495480 -0.681306 -0.175743 76 153 0
0.319632 0.563241 0.551455 127 0 127
0.510848 0.350411 -0.120037 76 153 0
0.196887 -0.635209 0.253219 153 76 0
-0.526352 -0.325470 -0.318061 153 0 76
0.510848 0.505900 -0.187021 76 153 0
0.342957 -0.635209 0.256593 153 76 0
0.159846 0.666409 0.266396 76 0 153
0.484883 -0.612804 -0.511675 76 0 153
-0.560926 -0.217929 0.131861 153 0 76
0.240827 -0.591231 0.516881 127 0 127
-0.526352 -0.106212 -0.114010 153 0 76
-0.221442 0.035773 -0.335347 153 0 76
-0.526352 0.154470 -0.308184 153 0 76
-0.416227 -0.010325 0.096646 153 0 76
0.510848 -0.354344 -0.461560 76 153 0
0.373369 0.666409 -0.134346 76 0 153
0.094008 -0.333755 0.551455 127 0 127
0.155756 0.035773 0.309333 153 0 76
-0.100507 0.666409 0.422406 76 0 153
0.214513 -0.010325 -0.348940 153 0 76
0.251132 -0.496325 -0.546249 204 51 127
-0.362727 0.363805 0.551455 127 0 127
0.095061 -0.010325 -0.307668 153 0 76
0.073635 -0.078930 -0.500151 76 0 153
-0.560926 0.024299 0.244085 153 0 76
-0.541728 -0.561372 0.551455 127 0 127
-0.356334 -0.681306 -0.120022 153 76 0
0.112522 -0.616118 0.551455 127 0 127
0.510848 0.206899 0.387616 76 153 0
-0.150102 -0.010325 0.158149 153 0 76
-0.156634 0.237227 -0.500151 76 0 153
0.204353 -0.182220 -0.500151 76 0 153
0.379201 0.246406 0.551455 127 0 127
0.084619 -0.635209 0.272363 153 76 0
0.050732 0.058779 0.516881 127 0 127
-0.526352 -0.378482 0.238107 153 0 76
-0.560926 -0.005476 -0.388285 153 0 76
0.542540 0.498330 0.536545 127 0 127
0.384910 -0.344185 -0.511675 76 0 153
0.545421 -0.316642 0.146363 76 153 0
0.173612 0.712506 -0.469221 76 0 153
-0.496271 -0.010325 -0.260209 153 0 76
-0.223350 -0.681306 -0.031256 153 76 0
-0.308769 0.107610 0.551455 127 0 127
-0.430251 -0.140806 0.551455 127 0 127
-0.074651 0.712506 -0.499012 76 0 153
-0.364505 -0.010325 0.426996 153 0 76
0.214561 0.666409 0.046201 76 0 153
-0.026255 -0.433368 0.551455 127 0 127
0.011842 0.542677 -0.546249 0 0 255
0.510848 -0.408111 0.041500 76 153 0
-0.168575 -0.010325 0.296890 153 0 76
-0.560926 -0.680549 0.055374 153 0 76
-0.198086 -0.681306 -0.246608 153 76 0
0.209192 0.038245 -0.511675 76 0 153
-0.205529 0.490226 -0.500151 76 0 153
0.167408 0.317459 0.551455 127 0 127
-0.353403 -0.681306 0.177789 153 76 0
0.545421 -0.007406 -0.119037 76 153 0
0.545421 -0.279246 -0.137466 76 153 0
0.545421 0.642660 0.334308 76 153 0
0.545421 -0.531265 -0.464239 76 153 0
0.415076 -0.583358 0.516881 127 0 127
0.336032 -0.261215 -0.511675 76 0 153
-0.397481 0.712506 0.193817 76 0 153
0.542540 0.315507 0.549646 127 0 127
0.510848 0.393959 0.035015 76 153 0
-0.526352 -0.410514 0.456512 153 0 76
-0.207923 0.666409 -0.475830 76 0 153
-0.560926 -0.270524 -0.021657 153 0 76
-0.419128 -0.493042 -0.500151 76 0 153
-0.558786 0.712507 -0.268286 153 0 76
0.370187 0.666409 0.461946 76 0 153
0.336670 0.666409 0.312667 76 0 153
0.180547 -0.052095 0.551455 127 0 127
-0.558045 0.287594 0.538362 127 0 127
-0.526352 -0.088099 0.020643 153 0 76
-0.210017 0.362295 0.551455 127 0 127
-0.526352 -0.598916 0.010380 153 0 76
-0.326233 -0.635209 0.394952 153 76 0
-0.485014 -0.635209 -0.236629 153 76 0
-0.436896 0.666409 -0.329380 76 0 153
-0.180827 0.035773 -0.036104 153 0 76
-0.243332 -0.472215 -0.500151 76 0 153
-0.280727 -0.365732 0.551455 127 0 127
0.349918 -0.010325 0.400464 153 0 76
-0.526352 0.065483 -0.124411 153 0 76
0.148221 -0.681306 -0.375655 153 76 0
-0.288545 0.138067 -0.500151 76 0 153
-0.000850 -0.599085 -0.546249 204 51 127
-0.358765 -0.516114 0.516881 127 0 127
0.545421 -0.002850 -0.378777 76 153 0
0.259105 0.469235 0.516881 127 0 127
0.310736 -0.284968 0.516881 127 0 127
0.510848 0.423981 -0.048365 76 153 0
-0.526352 -0.591399 -0.160342 153 0 76
0.510848 0.063565 -0.281195 76 153 0
-0.542938 0.712507 0.254967 153 0 76
0.295233 0.666409 0.206562 76 0 153
-0.077276 0.476731 0.516881 127 0 127
-0.158152 -0.304018 -0.500151 76 0 153
0.510848 -0.095092 0.119004 76 153 0
0.192566 0.035773 0.468207 153 0 76
-0.526352 -0.085765 -0.543745 153 0 76
-0.443800 0.666409 0.465324 76 0 153
0.469843 0.035773 0.157673 153 0 76
0.456740 0.163407 0.613074 0 127 127
-0.560926 0.315803 -0.447531 153 0 76
-0.377005 -0.010325 -0.039401 153 0 76
-0.560926 0.245875 -0.036608 153 0 76
0.545421 0.652007 -0.332388 76 153 0
0.545421 0.277514 0.144216 76 153 0
0.510848 0.175282 -0.381171 76 153 0
0.510848 -0.437002 0.449181 76 153 0
0.389169 -0.211696 0.516881 127 0 127
0.510848 0.334214 0.297354 76 153 0
0.012304 0.610734 0.551455 127 0 127
-0.077677 0.554061 -0.546249 0 0 255
-0.560926 -0.143921 -0.293141 153 0 76
0.501349 0.666409 0.060928 76 0 153
-0.017243 -0.681306 0.046531 153 76 0
-0.560926 -0.256345 -0.193082 153 0 76
0.288847 0.712506 -0.362244 76 0 153
0.160041 -0.010325 -0.017349 153 0 76
-0.334744 -0.681306 -0.476729 153 76 0
0.297251 -0.134506 0.516881 127 0 127
-0.217742 -0.635209 0.373840 153 76 0
-0.028856 -0.218143 0.516881 127 0 127
0.083139 0.666409 -0.041876 76 0 153
-0.276207 0.666409 0.122948 76 0 153
0.282115 0.035773 0.027521 153 0 76
0.510848 -0.274074 0.312798 76 153 0
-0.560926 -0.474932 -0.398684 153 0 76
-0.526352 0.463763 -0.452315 153 0 76
-0.372694 0.113094 -0.500151 76 0 153
0.545421 -0.452297 -0.130659 76 153 0
-0.526352 -0.520991 0.317570 153 0 76
-0.119662 0.035773 -0.362034 153 0 76
0.545421 0.632204 0.225874 76 153 0
0.028026 0.236539 0.516881 127 0 127
0.545421 -0.370655 0.293765 76 153 0
-0.345365 0.035773 -0.197904 153 0 76
0.113240 0.375935 0.516881 127 0 127
0.545421 0.703992 0.457578 76 153 0
-0.526352 0.557826 -0.333297 153 0 76
0.266217 -0.635209 -0.248088 153 76 0
-0.560926 -0.127929 -0.478128 153 0 76
-0.036149 0.712506 0.044862 76 0 153
0.002218 -0.681306 -0.170291 153 76 0
-0.475233 -0.635209 -0.511828 204 51 127
0.434418 0.666409 0.125618 76 0 153
0.545421 -0.583945 0.505272 127 0 127
0.510848 -0.108946 -0.256817 76 153 0
-0.560926 -0.196341 0.041186 153 0 76
0.545421 0.356340 0.454708 76 153 0
0.380983 0.712506 -0.295352 76 0 153
-0.009044 0.035773 -0.414765 153 0 76
-0.492497 0.035773 -0.443879 153 0 76
-0.542483 -0.681306 -0.280278 153 0 76
0.074979 0.666409 0.264459 76 0 153
0.304020 -0.010325 -0.040258 153 0 76
-0.086866 0.035773 -0.078552 153 0 76
0.359682 0.281552 -0.511675 76 0 153
0.510848 0.172685 0.098382 76 153 0
-0.526352 -0.339943 0.391618 153 0 76
-0.175267 0.666409 0.099719 76 0 153
-0.247326 0.666409 -0.097613 76 0 153
-0.227046 0.666409 0.459036 76 0 153
-0.560926 0.643733 0.414220 153 0 76
0.254153 0.523697 -0.511675 0 0 255
-0.452731 -0.635209 -0.388582 153 76 0
0.373855 -0.010325 -0.175010 153 0 76
0.292059 0.151651 -0.500151 76 0 153
-0.246134 0.207371 0.516881 127 0 127
0.333608 -0.635209 0.159989 153 76 0
0.011604 0.035773 0.260041 153 0 76
-0.176082 0.055708 -0.511675 76 0 153
0.359090 -0.055698 0.516881 127 0 127
-0.140991 0.328468 0.516881 127 0 127
0.545421 -0.328419 -0.312339 76 153 0
-0.015335 0.246395 -0.511675 76 0 153
-0.412804 -0.010325 -0.301112 153 0 76
-0.448242 -0.635209 0.440716 153 76 0
0.456506 -0.397901 0.551455 127 0 127
0.426549 0.547674 -0.546249 0 0 255
-0.560926 0.443848 -0.248785 153 0 76
-0.250429 -0.582681 -0.546249 204 51 127
-0.292770 0.035773 0.188224 153 0 76
0.545421 0.043220 -0.449077 76 153 0
-0.431678 0.666409 0.061580 76 0 153
0.545421 0.183290 0.471253 76 153 0
-0.150968 0.666409 -0.326567 76 0 153
-0.140159 -0.113282 0.516881 127 0 127
0.041569 -0.635209 0.346552 153 76 0
-0.335279 -0.681306 -0.225930 153 76 0
0.545421 0.431840 -0.539948 76 153 0
-0.526352 0.124174 -0.486712 153 0 76
-0.480717 -0.010325 -0.142371 153 0 76
-0.558997 -0.681306 0.344994 153 0 76
-0.014513 -0.635209 0.201481 153 76 0
-0.277495 0.035773 0.034328 153 0 76
-0.306866 -0.635209 0.487185 153 76 0
0.510848 -0.478793 -0.352843 76 153 0
0.449049 0.556447 0.616779 0 127 127
0.028507 0.666409 0.190012 76 0 153
0.074767 -0.681306 -0.439990 153 76 0
0.112197 0.706754 0.523419 127 0 127
0.416322 0.098160 0.516881 127 0 127
0.156391 0.516407 0.516881 127 0 127
-0.321728 0.035773 0.500403 153 0 76
0.545421 0.220926 -0.151899 76 153 0
0.510848 -0.264257 -0.467406 76 153 0
-0.081074 -0.681306 -0.464325 153 76 0
0.510848 -0.587586 0.406934 76 153 0
-0.299431 0.666409 0.294667 76 0 153
0.459468 -0.117780 0.551455 127 0 127
-0.322042 -0.033556 -0.500151 76 0 153
-0.196717 -0.010325 0.378681 153 0 76
0.510328 0.239113 0.551455 127 0 127
0.046529 0.712506 0.049977 76 0 153
-0.484878 0.712506 -0.170450 76 0 153
-0.471367 0.712506 0.303424 76 0 153
-0.383828 -0.439526 0.551455 127 0 127
0.222537 0.712506 0.213176 76 0 153
-0.459870 -0.681306 -0.164102 153 76 0
0.440066 -0.681306 0.376101 153 76 0
-0.329785 0.637460 -0.500151 0 0 255
0.488294 -0.635209 0.280345 153 76 0
-0.460837 -0.118301 -0.500151 76 0 153
0.132793 -0.408620 -0.546249 204 51 127
-0.326781 0.666409 0.051250 76 0 153
-0.448384 -0.010325 0.383986 153 0 76
0.274946 -0.635209 -0.360539 153 76 0
0.051705 -0.681306 0.449452 153 76 0
0.464924 -0.054494 -0.511675 76 0 153
0.510848 -0.024543 -0.197546 76 153 0
0.515122 -0.158007 -0.546249 76 153 0
-0.560926 0.696782 0.082272 153 0 76
-0.560926 0.291203 -0.200714 153 0 76
0.334881 0.679377 -0.546249 0 0 255
-0.560926 -0.144599 0.397148 153 0 76
-0.371265 -0.230261 0.551455 127 0 127
0.510848 0.394470 -0.190576 76 153 0
-0.003645 0.666409 0.480671 76 0 153
0.499272 -0.681306 -0.367265 153 76 0
0.107102 -0.084536 0.516881 127 0 127
0.510848 0.451228 0.450379 76 153 0
-0.173558 0.712506 -0.172397 76 0 153
0.252481 0.337502 0.551455 127 0 127
-0.057379 0.712506 0.327753 76 0 153
-0.052145 0.666409 0.169751 76 0 153
0.013999 0.061272 -0.500151 76 0 153
-0.072870 0.666409 -0.038597 76 0 153
-0.293638 -0.681306 0.244982 153 76 0
0.510848 0.507288 -0.464474 76 153 0
-0.541278 0.690339 0.551455 127 0 127
-0.243272 -0.503141 0.516881 127 0 127
-0.526352 0.103719 0.032066 153 0 76
-0.291187 0.712506 0.438007 76 0 153
-0.348722 -0.681306 0.311492 153 76 0
0.105774 -0.496436 0.516881 127 0 127
0.051357 -0.681306 0.183848 153 76 0
-0.483385 0.227519 0.516881 127 0 127
0.312057 -0.635209 -0.545978 204 51 127
-0.369838 0.035773 -0.377501 153 0 76
-0.526352 0.067767 -0.225980 153 0 76
-0.389976 0.031900 -0.511675 76 0 153
0.026668 0.712506 -0.149508 76 0 153
-0.410282 0.383736 -0.511675 76 0 153
0.379728 -0.184694 -0.500151 76 0 153
0.172643 0.222898 -0.500151 76 0 153
0.309621 -0.635209 0.003745 153 76 0
0.510848 0.417809 0.183410 76 153 0
-0.282977 -0.635209 -0.357683 153 76 0
0.435230 -0.635209 -0.053399 153 76 0
-0.421165 -0.635209 0.321614 153 76 0
0.479087 -0.681306 0.159905 153 76 0
0.207088 -0.010325 0.153525 153 0 76
-0.280760 0.497402 0.516881 127 0 127
0.510848 -0.076174 -0.089378 76 153 0
-0.045467 -0.681306 0.359956 153 76 0
0.431716 -0.010325 -0.001872 153 0 76
0.545421 0.512966 -0.308627 76 153 0
0.158771 0.147189 0.551455 127 0 127
-0.560926 -0.022576 0.315935 153 0 76
0.545421 0.327264 0.063296 76 153 0
-0.093506 0.035773 0.476939 153 0 76
-0.526352 -0.524719 -0.071961 153 0 76
0.251324 0.712506 0.353369 76 0 153
0.510848 0.573470 0.386946 76 153 0
-0.365772 0.601101 0.516881 127 0 127
-0.427659 -0.681306 -0.455066 153 76 0
0.545421 0.044536 0.436519 76 153 0
0.510848 0.603673 -0.099827 76 153 0
0.180370 -0.635209 0.379591 153 76 0
0.273510 -0.010325 -0.275509 153 0 76
-0.497533 -0.370343 -0.500151 76 0 153
-0.108801 -0.681306 -0.352480 153 76 0
-0.526352 0.593064 0.354417 153 0 76
0.412718 -0.681306 0.285158 153 76 0
-0.293746 -0.681306 0.123142 153 76 0
-0.334183 0.272823 -0.511675 76 0 153
0.466731 0.155612 -0.511675 76 0 153
0.046991 -0.536771 -0.500151 76 0 153
0.276098 0.666409 0.428049 76 0 153
0.471512 -0.679454 0.516881 127 0 127
-0.075270 -0.008382 -0.511675 76 0 153
-0.560926 0.374317 0.387377 153 0 76
0.545421 -0.470762 0.075874 76 153 0
0.477562 0.035773 -0.150665 153 0 76
0.510848 0.602772 -0.400856 76 153 0
-0.498202 -0.499276 -0.500151 76 0 153
0.377919 0.035773 0.086322 153 0 76
-0.066937 -0.010325 0.173773 153 0 76
0.469798 0.035773 -0.366756 153 0 76
0.545421 0.150014 -0.290111 76 153 0
0.545421 -0.109226 0.365932 76 153 0
-0.480056 0.676740 -0.546249 0 0 255
0.278363 -0.435097 -0.500151 76 0 153
0.181078 -0.010325 -0.436903 153 0 76
0.545421 -0.629612 0.038712 76 153 0
-0.042977 0.035773 -0.002411 153 0 76
0.125261 0.566894 -0.500151 76 0 153
0.271375 0.666409 -0.022245 76 0 153
-0.526352 0.437471 -0.093977 153 0 76
0.319438 -0.681306 0.322708 153 76 0
0.510848 0.265556 -0.254049 76 153 0
0.545421 0.096264 0.169084 76 153 0
0.542540 -0.489065 0.528279 76 153 0
-0.409253 -0.289999 0.516881 127 0 127
0.545421 -0.016809 -0.037754 76 153 0
0.142651 0.712506 0.418130 76 0 153
-0.262502 0.666409 -0.322488 76 0 153
0.397338 0.035773 0.250831 153 0 76
-0.219291 -0.400489 0.516881 127 0 127
0.504455 0.712506 0.338027 76 0 153
0.368304 0.608368 -0.546249 0 0 255
-0.283302 0.035773 -0.091069 153 0 76
0.510848 -0.083918 0.489169 76 153 0
0.476972 0.666409 -0.167804 76 0 153
-0.213852 0.569192 -0.546249 0 0 255
-0.014372 -0.681306 -0.071132 153 76 0
0.415915 0.712506 0.376725 76 0 153
0.545421 0.018762 0.310529 76 153 0
-0.007883 0.341502 0.516881 127 0 127
0.384184 -0.010325 -0.257064 153 0 76
0.356916 0.666409 0.044885 76 0 153
-0.403382 -0.606858 -0.500151 204 51 127
-0.526352 -0.611798 0.171542 153 0 76
-0.482373 -0.261548 -0.500151 76 0 153
-0.278819 -0.635209 -0.106869 153 76 0
0.346617 -0.635209 -0.147420 153 76 0
-0.560926 0.017383 0.009401 153 0 76
-0.317087 -0.010325 0.361299 153 0 76
-0.042676 0.035773 0.386903 153 0 76
0.185284 0.712506 0.102990 76 0 153
0.125458 -0.635209 0.141585 153 76 0
-0.526352 0.222720 -0.179042 153 0 76
0.545421 -0.377812 -0.395930 76 153 0
-0.152072 -0.250466 0.516881 127 0 127
-0.526352 0.147958 -0.402182 153 0 76
0.102199 -0.635209 0.011797 153 76 0
-0.155545 0.035773 0.037288 153 0 76
0.105120 -0.010325 0.345857 153 0 76
-0.526352 0.271657 0.212786 153 0 76
0.303147 0.101525 0.516881 127 0 127
-0.494220 -0.316981 0.516881 127 0 127
-0.560926 -0.225166 0.250690 153 0 76
-0.560926 0.393341 -0.476165 153 0 76
-0.280169 0.712506 -0.237050 76 0 153
-0.526352 0.606909 -0.231673 153 0 76
0.545421 -0.604440 0.112004 76 153 0
0.429266 -0.635209 -0.137611 153 76 0
-0.424322 0.035773 0.236924 153 0 76
-0.500261 0.521021 -0.511675 76 0 153
-0.390488 0.216015 0.516881 127 0 127
-0.377925 0.123070 0.516881 127 0 127
-0.526352 0.223894 0.347025 153 0 76
-0.093641 0.630357 -0.546249 0 0 255
-0.222088 0.442963 0.516881 127 0 127
0.218057 -0.260713 0.516881 127 0 127
0.332703 -0.493970 0.551455 127 0 127
-0.188549 0.678051 0.551455 127 0 127
0.466126 -0.010325 -0.270047 153 0 76
0.264634 -0.010325 0.395326 153 0 76
0.510848 -0.499180 0.008183 76 153 0
-0.560926 0.530438 0.506121 153 0 76
-0.544153 0.712507 -0.119345 153 0 76
0.324808 0.712506 -0.237324 76 0 153
-0.526352 0.409240 0.495468 153 0 76
-0.362243 -0.596209 0.551455 127 0 127
-0.532900 0.122611 0.551455 127 0 127
-0.296977 -0.090397 0.551455 127 0 127
-0.191751 -0.635209 0.215946 153 76 0
-0.526352 0.249536 0.091954 153 0 76
-0.526352 -0.103220 0.167943 153 0 76
-0.086569 -0.010325 -0.236335 153 0 76
0.183931 -0.681306 0.318039 153 76 0
-0.035751 -0.010325 0.098205 153 0 76
0.013274 -0.501648 0.551455 127 0 127
0.452500 -0.635209 0.064667 153 76 0
0.442420 0.629388 0.516881 127 0 127
-0.122512 -0.681306 -0.127514 153 76 0
0.267652 0.712506 -0.451947 76 0 153
0.545421 0.265660 -0.388956 76 153 0
-0.526352 -0.593365 -0.286179 153 0 76
0.180249 0.035773 -0.184958 153 0 76
0.545421 -0.015950 0.237274 76 153 0
0.545421 -0.244358 0.028404 76 153 0
0.489560 0.666409 -0.263737 76 0 153
-0.560926 0.651867 0.015824 153 0 76
0.545421 -0.236206 0.206649 76 153 0
0.545421 0.241510 0.000075 76 153 0
-0.377818 0.712506 -0.467600 76 0 153
0.545421 -0.216908 -0.397014 76 153 0
0.385247 -0.635209 0.418078 153 76 0
-0.494387 -0.635209 0.379704 153 76 0
0.134673 0.641926 -0.511675 76 0 153
0.510848 0.635877 -0.541263 0 0 255
-0.526352 -0.409217 -0.299989 153 0 76
0.284073 -0.635209 0.401181 153 76 0
-0.048849 -0.010325 0.252416 153 0 76
-0.024139 0.712506 -0.263767 76 0 153
-0.417408 -0.006813 0.516881 127 0 127
0.179133 -0.362956 -0.500151 76 0 153
0.157280 0.712506 -0.128261 76 0 153
-0.549349 -0.033304 0.551455 127 0 127
-0.526352 0.310336 -0.057742 153 0 76
-0.009317 -0.328901 -0.511675 76 0 153
-0.560926 0.105308 0.288234 153 0 76
0.038777 0.035773 0.103262 153 0 76
0.510848 0.107883 -0.155966 76 153 0
-0.152100 -0.386788 0.551455 127 0 127
-0.066363 0.112013 0.516881 127 0 127
0.455730 -0.677569 -0.546249 153 76 0
-0.323366 0.707798 -0.546249 76 0 153
-0.029807 0.347229 -0.511675 76 0 153
-0.063728 0.712506 0.478123 76 0 153
0.510848 0.247125 0.204398 76 153 0
0.484051 -0.010325 0.474722 153 0 76
-0.061175 -0.635209 -0.224973 153 76 0
-0.428439 -0.635209 0.181242 153 76 0
-0.526352 0.022929 -0.060457 153 0 76
0.045847 0.435920 -0.544735 0 0 255
-0.560926 0.042200 0.145962 153 0 76
-0.560926 0.433632 0.252758 153 0 76
0.255278 -0.243798 -0.511675 76 0 153
0.146687 0.666409 -0.398969 76 0 153
-0.361145 0.666409 -0.063785 76 0 153
0.017437 0.666409 -0.477076 76 0 153
-0.317083 0.517853 -0.546249 0 0 255
0.223753 -0.117433 0.516881 127 0 127
-0.388861 -0.385789 -0.500151 76 0 153
-0.526352 -0.072286 -0.384131 153 0 76
0.466870 0.712506 0.268999 76 0 153
-0.219752 -0.010325 -0.098014 153 0 76
-0.080888 -0.635209 0.058166 153 76 0
-0.217213 -0.635209 0.058076 153 76 0
-0.315974 -0.281303 -0.500151 76 0 153
0.484686 0.712506 -0.500269 76 0 153
-0.270340 -0.635209 -0.486314 153 76 0
-0.189718 -0.446726 -0.546249 204 51 127
-0.357759 0.441193 0.551455 127 0 127
0.282670 0.712506 0.114955 76 0 153
0.034127 -0.010325 0.481433 153 0 76
0.189547 0.712506 -0.355630 76 0 153
-0.526352 0.548671 0.284851 153 0 76
-0.267029 0.035773 -0.446810 153 0 76
0.225729 -0.635209 -0.483651 76 0 153
-0.483467 -0.635209 0.236078 153 76 0
-0.423792 -0.681306 -0.241342 153 76 0
-0.061010 0.666409 -0.368373 76 0 153
0.201056 -0.635209 -0.404779 153 76 0
0.053363 0.498313 0.551455 127 0 127
-0.059824 -0.681306 0.541580 127 0 127
-0.353900 0.270986 0.551455 127 0 127
-0.349081 -0.681306 -0.359061 153 76 0
0.434423 -0.010325 0.404564 153 0 76
-0.489069 -0.010325 0.497041 153 0 76
0.037304 -0.372598 0.516881 127 0 127
0.236226 -0.516080 0.516881 127 0 127
0.058311 -0.010325 0.187959 153 0 76
0.270238 0.184782 0.516881 127 0 127
0.542540 -0.196428 0.545292 127 0 127
-0.560926 0.177057 -0.242701 153 0 76
-0.459297 0.666409 -0.012986 76 0 153
0.110165 0.331601 -0.500151 76 0 153
-0.194153 0.666409 0.221790 76 0 153
-0.080869 -0.635209 0.409481 153 76 0
-0.406155 0.035773 -0.153846 153 0 76
-0.365424 -0.367368 0.516881 127 0 127
-0.316663 0.666409 0.490126 76 0 153
-0.526352 0.632368 -0.121984 153 0 76
0.545421 0.629444 0.111115 76 153 0
0.401373 -0.359957 0.516881 127 0 127
0.545421 -0.131434 0.279879 76 153 0
0.152440 0.035773 -0.300545 153 0 76
-0.101710 -0.565221 0.551455 127 0 127
0.101739 0.252710 0.551455 127 0 127
0.510848 -0.468846 -0.488459 76 153 0
-0.008001 -0.635209 0.488783 153 76 0
0.089980 0.666409 -0.298228 76 0 153
-0.048525 -0.042649 0.551455 127 0 127
0.403339 -0.681306 -0.268656 153 76 0
-0.526352 0.246061 -0.541057 153 0 76
-0.560926 -0.679442 0.158546 153 0 76
0.453651 -0.007870 0.615318 0 127 127
-0.526352 0.185281 0.205498 153 0 76
-0.183045 -0.681306 -0.445120 153 76 0
-0.526352 -0.202435 -0.351819 153 0 76
0.350265 -0.010325 -0.362830 153 0 76
0.110726 -0.248981 -0.511675 76 0 153
-0.560926 -0.573765 0.275919 153 0 76
-0.181429 0.034400 0.516881 127 0 127
-0.560926 -0.270724 0.401168 153 0 76
-0.143404 -0.389609 -0.511675 76 0 153
-0.074434 0.219826 0.551455 127 0 127
0.545421 -0.153979 0.161665 76 153 0
0.510848 -0.189271 -0.008086 76 153 0
0.343248 -0.113597 -0.511675 76 0 153
-0.290119 -0.233322 0.551455 127 0 127
-0.172398 0.666409 -0.105707 76 0 153
-0.490336 0.638007 0.516881 127 0 127
0.001828 -0.681306 -0.306363 153 76 0
0.107326 -0.681306 0.518341 153 76 0
0.510848 -0.504790 0.367296 76 153 0
0.545421 0.388508 -0.322748 76 153 0
-0.393785 0.712506 -0.203245 76 0 153
0.510848 -0.235954 -0.198187 76 153 0
0.159266 0.035773 0.117641 153 0 76
-0.098002 -0.457532 0.551455 127 0 127
-0.420610 0.712506 0.407041 76 0 153
0.463314 -0.330075 -0.511675 76 0 153
0.351051 -0.635209 -0.232315 153 76 0
-0.290603 -0.508164 -0.546249 204 51 127
-0.320358 0.712506 0.348104 76 0 153
-0.526352 -0.477684 0.187811 153 0 76
-0.372879 0.035773 0.134395 153 0 76
0.162457 -0.359321 0.551455 127 0 127
0.027730 -0.120952 0.516881 127 0 127
0.005452 -0.105165 -0.500151 76 0 153
-0.175425 -0.110336 -0.500151 76 0 153
-0.152657 -0.598580 -0.546249 204 51 127
-0.499579 0.666409 -0.289538 76 0 153
0.407661 -0.516453 0.551455 127 0 127
0.545421 0.185874 0.253659 76 153 0
-0.381938 -0.535524 -0.546249 204 51 127
-0.560926 -0.440201 0.089150 153 0 76
0.191302 -0.681306 0.059281 153 76 0
0.378164 -0.681306 0.194456 153 76 0
0.510848 -0.551242 0.262267 76 153 0
-0.526352 -0.043889 0.078411 153 0 76
0.545421 0.293753 -0.089027 76 153 0
0.143196 -0.562857 -0.500151 76 0 153
0.202869 0.374691 -0.511675 76 0 153
-0.081700 0.712506 -0.184696 76 0 153
0.052312 0.035773 0.326724 153 0 76
0.316712 0.666409 -0.421481 76 0 153
0.475636 0.035773 0.288510 153 0 76
0.426681 0.035204 0.551455 127 0 127
-0.116567 0.712506 0.270014 76 0 153
-0.560926 0.349208 0.085606 153 0 76
0.385472 -0.417653 -0.500151 76 0 153
0.096210 -0.635209 -0.064586 153 76 0
0.109464 0.035773 -0.145878 153 0 76
0.081651 0.631689 0.551455 127 0 127
-0.185385 -0.681306 0.492623 153 76 0
-0.148990 0.712506 -0.469006 76 0 153
-0.317988 0.035773 -0.025717 153 0 76
0.034329 0.035773 -0.021852 153 0 76
0.075657 -0.635209 -0.211420 153 76 0
0.383245 0.567350 0.516881 127 0 127
0.106338 -0.182671 0.516881 127 0 127
0.165775 0.666409 0.174833 76 0 153
0.185678 0.712506 0.315756 76 0 153
-0.560926 -0.622760 0.413357 153 0 76
-0.560926 -0.314890 -0.150682 153 0 76
0.397263 0.666409 -0.465639 76 0 153
-0.560926 0.330467 0.322941 153 0 76
-0.560926 -0.130831 0.257092 153 0 76
-0.526352 -0.184353 -0.106704 153 0 76
0.545421 -0.609438 -0.466920 76 153 0
0.125144 0.666409 -0.194329 76 0 153
-0.560926 -0.555277 -0.367832 153 0 76
-0.560926 -0.335185 0.010205 153 0 76
0.545421 -0.619951 -0.345288 76 153 0
0.352472 0.035773 0.457623 153 0 76
-0.234472 -0.317838 -0.500151 76 0 153
-0.484554 -0.174769 0.516881 127 0 127
-0.143599 0.712506 -0.381190 76 0 153
-0.560592 -0.378835 -0.546249 153 0 76
-0.177783 -0.010325 -0.368919 153 0 76
-0.526352 0.103636 0.385315 153 0 76
0.545421 -0.650832 -0.030278 76 153 0
-0.191467 -0.627639 0.551455 127 0 127
0.208293 -0.681306 0.192432 153 76 0
0.307556 0.712506 0.266158 76 0 153
0.326598 -0.635209 0.503001 153 76 0
-0.057973 -0.681306 0.236558 153 76 0
0.545421 0.696841 0.193080 76 153 0
0.510848 -0.086094 -0.016997 76 153 0
0.069877 -0.266330 0.551455 127 0 127
-0.526352 -0.008063 -0.528944 153 0 76
0.241734 0.666409 -0.133305 76 0 153
0.279009 -0.635209 -0.123937 153 76 0
0.353941 -0.681306 -0.028823 153 76 0
0.475204 0.683446 0.551455 127 0 127
-0.560926 0.168993 0.483755 153 0 76
-0.275628 -0.428210 -0.546249 204 51 127
-0.242123 0.083758 -0.500151 76 0 153
-0.518679 -0.106212 0.551455 127 0 127
0.224008 0.035773 -0.120291 153 0 76
-0.435619 0.360070 0.551455 127 0 127
0.238235 0.712506 -0.254336 76 0 153
0.434255 -0.480695 -0.546249 204 51 127
-0.024682 -0.360807 0.551455 127 0 127
0.271075 0.035773 0.260210 153 0 76
0.545421 -0.026141 -0.482168 76 153 0
0.545421 -0.583802 -0.542190 76 153 0
0.184486 0.455010 0.551455 127 0 127
-0.526352 0.091063 -0.358720 153 0 76
0.396714 -0.681306 0.470940 153 76 0
0.327840 -0.010325 0.163246 153 0 76
-0.324199 0.712506 0.150705 76 0 153
-0.194741 0.666409 0.349056 76 0 153
0.510848 -0.120897 -0.485720 76 153 0
0.045839 0.666409 -0.200014 76 0 153
0.489587 0.444718 0.551455 127 0 127
-0.560926 -0.621021 0.487668 153 0 76
-0.210793 -0.010325 0.021210 153 0 76
-0.178057 0.641681 -0.546249 0 0 255
0.257592 0.035773 0.101583 153 0 76
-0.204160 0.035773 0.158803 153 0 76
-0.526352 0.649728 0.167088 153 0 76
-0.268011 -0.154775 0.516881 127 0 127
0.475644 0.439414 -0.511675 76 0 153
-0.526352 0.177934 0.098742 153 0 76
0.510848 -0.144388 -0.188919 76 153 0
0.510848 0.572942 0.005579 76 153 0
0.478834 -0.464959 0.551455 127 0 127
-0.560926 0.693879 -0.424325 153 0 76
0.545421 0.390380 -0.396531 76 153 0
-0.219639 0.666409 0.007425 76 0 153
0.190765 -0.112313 -0.511675 76 0 153
0.257010 -0.395332 0.551455 127 0 127
0.510848 0.042330 -0.074957 153 0 76
-0.560926 -0.630583 -0.426858 153 0 76
-0.526352 0.270737 -0.405799 153 0 76
-0.316535 -0.662439 0.551455 127 0 127
-0.444004 -0.635209 0.032362 153 76 0
0.510848 -0.059207 -0.350279 76 153 0
0.229692 -0.010325 0.316363 153 0 76
0.497724 -0.681306 -0.489330 153 76 0
-0.055248 -0.010325 -0.127127 153 0 76
-0.125785 0.140057 -0.500151 76 0 153
0.417479 -0.010325 -0.399771 153 0 76
-0.493958 -0.612771 0.551455 127 0 127
0.510848 0.408601 0.319188 76 153 0
0.343710 -0.537599 -0.546249 204 51 127
0.129429 0.000890 0.551455 127 0 127
0.477475 -0.210058 -0.500151 76 0 153
-0.279703 -0.681306 0.370094 153 76 0
0.493493 0.666409 0.485766 76 153 0
0.351019 0.706754 0.544698 127 0 127
0.013242 -0.469189 -0.500151 76 0 153
0.224708 0.666409 -0.487448 76 0 153
-0.281434 -0.010325 0.272275 153 0 76
0.359605 0.111576 -0.511675 76 0 153
-0.006414 -0.010325 -0.188491 153 0 76
-0.064466 0.666409 0.261947 76 0 153
0.239423 -0.010325 0.494830 153 0 76
0.446117 0.666409 -0.054197 76 0 153
0.464979 0.666409 -0.380967 76 0 153
-0.391907 0.533714 -0.500151 76 0 153
-0.140484 -0.681306 0.164716 153 76 0
-0.560926 -0.236276 0.492432 153 0 76
0.545421 0.304805 -0.300323 76 153 0
0.407235 -0.681306 -0.381960 153 76 0
0.486952 0.067229 -0.500151 76 153 0
0.050471 0.712506 0.382254 76 0 153
-0.496659 -0.508130 0.551455 127 0 127
0.535764 0.712507 -0.368411 76 153 0
-0.560926 -0.117046 -0.054434 153 0 76
-0.404680 0.629202 -0.500151 76 0 153
0.042591 0.035773 -0.310072 153 0 76
-0.375634 -0.635209 0.444021 153 76 0
0.419754 0.712506 -0.176877 76 0 153
-0.293518 -0.010325 -0.182950 153 0 76
0.545421 0.165382 -0.508829 76 153 0
0.242078 -0.681306 0.280030 153 76 0
-0.560926 -0.664963 -0.043604 153 0 76
0.483038 -0.619070 0.551455 127 0 127
-0.018252 -0.681306 -0.387494 153 76 0
-0.194302 0.176923 0.551455 127 0 127
-0.518011 -0.572239 -0.511675 76 0 153
-0.310231 -0.009709 0.551455 127 0 127
0.373581 0.381535 0.551455 127 0 127
0.199097 -0.203717 0.551455 127 0 127
0.350734 -0.635209 0.092842 153 76 0
-0.038695 0.119073 -0.500151 76 0 153
-0.199552 0.438854 -0.546249 0 0 255
-0.526352 0.396885 -0.311688 153 0 76
-0.052324 -0.635209 -0.507118 153 76 0
-0.195922 -0.010325 -0.169713 153 0 76
-0.513059 0.336045 -0.500151 76 0 153
-0.559806 0.712507 -0.018454 153 0 76
-0.560926 0.596707 -0.379100 153 0 76
-0.448909 0.035773 0.056529 153 0 76
-0.560926 -0.037561 -0.120533 153 0 76
-0.508244 -0.447283 -0.546249 204 51 127
0.127700 0.035773 0.408055 153 0 76
0.543401 0.712507 -0.299239 76 153 0
-0.560926 0.516794 0.170051 153 0 76
-0.240230 0.712506 -0.430158 76 0 153
-0.451411 0.712506 -0.393632 76 0 153
0.510848 0.004508 0.066228 76 153 0
0.171634 -0.681306 -0.260508 153 76 0
-0.124507 -0.681306 0.280633 153 76 0
-0.209691 -0.047801 0.516881 127 0 127
-0.387547 0.666409 -0.260651 76 0 153
0.239349 0.035773 -0.405550 153 0 76
0.051273 -0.635209 -0.485500 76 0 153
0.545421 -0.462982 0.215460 76 153 0
-0.417293 0.235266 -0.511675 76 0 153
-0.220004 -0.681306 0.160176 153 76 0
0.545421 0.283266 -0.507693 76 153 0
-0.560926 0.131174 -0.124920 153 0 76
-0.237027 0.035773 0.412596 153 0 76
0.475865 0.110680 0.551455 127 0 127
0.418324 -0.010325 -0.487207 76 0 153
0.113946 -0.316621 -0.500151 76 0 153
0.510848 -0.292945 0.430653 76 153 0
-0.380972 0.712506 0.057099 76 0 153
-0.560926 -0.552583 0.149343 153 0 76
0.545421 -0.012866 0.372273 76 153 0
-0.558247 -0.681306 -0.507456 153 0 76
-0.526352 0.453450 0.366938 153 0 76
-0.492967 0.035773 0.262276 153 0 76
-0.125642 0.035773 -0.463091 153 0 76
-0.291177 -0.010325 -0.309373 153 0 76
0.305072 -0.635209 -0.431397 153 76 0
-0.126649 0.528398 -0.500151 0 0 255
0.223646 0.712506 -0.039396 76 0 153
-0.259557 0.335552 -0.511675 76 0 153
-0.560926 -0.034050 -0.250600 153 0 76
0.332181 -0.635209 -0.074529 153 76 0
0.078728 -0.010325 0.002458 153 0 76
0.510848 0.119775 0.237719 76 153 0
-0.526352 -0.162975 -0.232884 153 0 76
0.034245 0.382858 0.551455 127 0 127
0.510848 -0.469030 -0.284859 76 153 0
0.545421 0.707846 0.029041 76 153 0
-0.423021 -0.681306 0.131042 153 76 0
0.545421 0.454026 0.070199 76 153 0
-0.169815 -0.175402 0.516881 127 0 127
0.039476 -0.635209 0.038949 153 76 0
-0.526352 -0.421216 -0.441872 153 0 76
0.249817 -0.681306 0.134982 153 76 0
0.206838 0.035773 0.017898 153 0 76
-0.442066 0.035773 -0.254710 153 0 76
-0.503642 0.712506 0.423704 76 0 153
-0.374398 0.712506 -0.361409 76 0 153
-0.052877 0.602826 0.516881 127 0 127
-0.529027 -0.242877 -0.546249 153 0 76
-0.092406 -0.010325 0.414731 153 0 76
0.058960 -0.010325 -0.096948 153 0 76
-0.526352 0.261734 -0.320880 153 0 76
-0.312930 -0.146057 -0.511675 76 0 153
0.353600 -0.593913 -0.500151 76 0 153
-0.381215 -0.010325 0.277009 153 0 76
0.052686 0.712506 0.135045 76 0 153
-0.198468 0.035773 -0.271344 153 0 76
-0.351760 -0.635209 -0.539508 153 76 0
0.341056 0.482667 -0.500151 76 0 153
0.093702 -0.012397 -0.511675 76 0 153
0.475462 0.712506 0.154093 76 0 153
-0.526352 0.497044 -0.373305 153 0 76
0.545421 -0.543120 -0.176993 76 153 0
0.170992 -0.617667 0.516881 127 0 127
0.510848 0.142698 -0.042713 76 153 0
-0.510075 -0.010325 -0.343514 153 0 76
-0.526352 0.505822 -0.130524 153 0 76
0.163450 0.666409 0.463420 76 0 153
-0.064879 0.035773 0.305571 153 0 76
-0.252968 0.195877 -0.500151 76 0 153
0.064833 0.666409 -0.387577 76 0 153
-0.560926 -0.283930 -0.277008 153 0 76
0.064897 0.035773 -0.374169 153 0 76
0.371745 -0.010325 -0.060173 153 0 76
-0.150546 0.323334 -0.511675 76 0 153
0.313657 -0.007489 0.502476 153 0 76
-0.526352 0.608764 0.467558 153 0 76
-0.526352 -0.454301 0.003957 153 0 76
-0.169770 -0.635209 0.321142 153 76 0
-0.476240 -0.635209 0.128807 153 76 0
-0.116528 -0.635209 0.494843 153 76 0
-0.241536 0.712506 -0.512134 76 0 153
0.329346 -0.010325 0.314347 153 0 76
-0.121564 0.712506 -0.018239 76 0 153
0.225660 0.712506 0.446719 76 0 153
-0.409359 0.508883 0.516881 127 0 127
-0.253164 0.409542 -0.500151 76 0 153
0.545421 -0.215692 0.272019 76 153 0
0.148572 -0.010325 0.260739 153 0 76
-0.526352 -0.218684 -0.432529 153 0 76
-0.501110 0.035773 0.387019 153 0 76
-0.106874 -0.681306 -0.011909 153 76 0
0.134008 -0.681306 0.272892 153 76 0
0.510848 -0.195223 0.482322 76 153 0
-0.009232 0.280621 0.551455 127 0 127
-0.248741 -0.010325 0.134930 153 0 76
0.533747 0.639839 0.551455 127 0 127
-0.435541 0.448723 -0.500151 76 0 153
0.419866 0.035773 -0.116239 153 0 76
0.107059 -0.635209 -0.348974 153 76 0
-0.510043 -0.440628 0.551455 127 0 127
0.510848 -0.600885 -0.159060 76 153 0
0.025928 0.299913 -0.500151 76 0 153
0.545421 -0.154443 -0.301858 76 153 0
-0.535970 0.411411 -0.546249 153 0 76
-0.560926 0.032355 -0.480089 153 0 76
0.165521 0.035773 -0.065819 153 0 76
-0.560926 -0.541459 0.384698 153 0 76
0.458924 -0.272301 0.516881 127 0 127
0.291195 -0.010683 -0.511675 76 0 153
0.152309 0.712506 -0.250497 76 0 153
0.208986 0.645718 0.516881 127 0 127
-0.094279 -0.511081 -0.546249 204 51 127
0.545421 0.642280 -0.226357 76 153 0
-0.131523 0.253939 0.516881 127 0 127
-0.486237 0.423915 0.551455 127 0 127
0.510848 0.172203 -0.121646 76 153 0
-0.464901 0.035773 -0.188289 153 0 76
-0.492759 -0.010325 0.125553 153 0 76
0.285966 0.035773 -0.087219 153 0 76
-0.526352 0.599291 -0.031935 153 0 76
-0.338990 -0.681306 0.064089 153 76 0
-0.110702 -0.010325 -0.173124 153 0 76
0.267395 0.579349 -0.546249 0 0 255
0.012584 0.123045 0.516881 127 0 127
-0.526352 0.674724 0.307497 76 0 153
-0.423283 -0.623722 0.516881 127 0 127
0.545421 -0.650630 0.167022 76 153 0
0.545421 0.630219 0.403090 76 153 0
0.494821 -0.635209 -0.265636 76 153 0
-0.253080 -0.280171 0.516881 127 0 127
-0.495106 0.464194 -0.546249 0 0 255
-0.049121 0.035773 -0.469054 153 0 76
-0.560926 0.146077 -0.008711 153 0 76
-0.047753 -0.635209 0.143710 153 76 0
0.432929 0.666409 -0.312007 76 0 153
-0.337574 0.035773 -0.453431 153 0 76
0.379882 0.561732 -0.500151 76 0 153
0.320791 0.623508 0.516881 127 0 127
-0.526352 -0.141883 0.453963 153 0 76
-0.200703 0.666409 -0.229109 76 0 153
-0.560926 0.469988 0.045290 153 0 76
0.387174 0.712506 -0.088452 76 0 153
-0.039943 0.524548 -0.500151 0 0 255
0.510848 -0.078364 0.256385 76 153 0
-0.492964 0.291093 0.551455 127 0 127
0.086364 0.035773 -0.260045 153 0 76
0.090858 0.666409 0.031856 76 0 153
0.488522 0.571704 -0.546249 0 0 255
0.545421 0.705313 0.391137 76 153 0
0.496547 -0.062651 0.551455 127 0 127
0.324914 -0.194973 0.516881 127 0 127
0.545421 -0.609765 0.258057 76 153 0
0.545421 -0.251968 0.094794 76 153 0
0.545421 -0.522588 -0.063771 76 153 0
0.066490 0.712506 -0.493656 76 0 153
0.385183 0.712506 -0.411344 76 0 153
0.040637 0.712506 0.462078 76 0 153
0.545421 -0.265009 -0.283471 76 153 0
0.450529 0.666409 0.013414 76 0 153
-0.128944 -0.510178 0.516881 127 0 127
-0.093675 -0.681306 -0.190302 153 76 0
-0.526352 -0.276501 0.274161 153 0 76
-0.072753 0.666409 0.075129 76 0 153
0.056987 -0.201814 -0.500151 76 0 153
0.510848 0.496809 -0.114093 76 153 0
0.452119 -0.635209 -0.400381 153 76 0
0.510848 0.489405 0.395594 76 153 0
0.510848 -0.406993 -0.076615 76 153 0
-0.248502 0.641161 0.516881 127 0 127
-0.560926 0.639957 0.224869 153 0 76
-0.441129 0.666409 -0.201751 76 0 153
-0.389848 -0.450156 -0.546249 204 51 127
-0.028338 -0.155938 0.551455 127 0 127
0.510848 -0.374388 -0.253529 76 153 0
0.397854 0.035773 0.372800 153 0 76
-0.526352 -0.632216 0.301074 153 76 0
-0.230504 -0.635209 0.478761 153 76 0
0.006350 0.638543 -0.546249 0 0 255
-0.148414 -0.010325 0.092240 153 0 76
0.545421 0.541553 -0.249248 76 153 0
0.293162 -0.010325 -0.395726 153 0 76
0.510848 -0.317127 -0.071199 76 153 0
0.545421 0.091135 0.313270 76 153 0
0.545421 0.203840 0.331623 76 153 0
0.176791 -0.681306 -0.488418 153 76 0
0.510848 0.651960 0.279061 76 153 0
0.054972 -0.635209 -0.295981 153 76 0
0.545421 -0.645761 0.397057 76 153 0
-0.526352 0.459054 0.110688 153 0 76
-0.211321 0.035773 0.271790 153 0 76
0.387210 0.712506 0.145316 76 0 153
0.354342 0.035773 -0.487382 153 0 76
0.479294 0.359393 0.516881 127 0 127
0.007820 -0.010325 0.384093 153 0 76
-0.526352 -0.278130 0.136378 153 0 76
0.027985 -0.616510 0.551455 127 0 127
-0.404313 0.712506 -0.081688 76 0 153
0.224830 -0.534903 -0.500151 76 0 153
-0.560926 0.663933 -0.356036 153 0 76
-0.199339 -0.681306 -0.545875 153 76 0
0.510848 0.501974 0.276370 76 153 0
0.510848 0.327932 0.120449 76 153 0
-0.260163 -0.635209 0.000186 153 76 0
0.338418 0.712506 -0.168259 76 0 153
0.320613 0.712506 -0.034390 76 0 153
-0.452715 -0.010325 -0.419659 153 0 76
-0.560926 -0.543551 0.067704 153 0 76
0.432464 0.666409 0.441713 76 0 153
0.238044 0.188659 -0.500151 76 0 153
-0.230914 -0.681306 -0.358141 153 76 0
-0.393399 -0.681306 -0.058159 153 76 0
-0.169400 0.712506 0.046190 76 0 153
-0.216215 -0.177358 -0.511675 76 0 153
-0.334266 -0.635209 -0.165795 153 76 0
-0.526352 -0.495757 -0.232397 153 0 76
-0.396052 0.666409 0.240292 76 0 153
-0.497330 -0.635209 -0.340535 153 76 0
0.397061 -0.681306 -0.176957 153 76 0
0.151074 -0.681306 -0.115421 153 76 0
0.055917 0.567444 -0.500151 76 0 153
0.039651 -0.635209 -0.405338 153 76 0
-0.152674 -0.635209 -0.276268 153 76 0
-0.306705 -0.635209 -0.418432 153 76 0
-0.095372 0.021060 0.551455 127 0 127
-0.560926 -0.340066 0.189050 153 0 76
-0.560926 0.439821 -0.396193 153 0 76
-0.526352 0.527083 0.046989 153 0 76
0.433793 -0.584734 -0.546249 204 51 127
-0.526352 0.366247 0.014592 153 0 76
-0.121321 0.666409 -0.161317 76 0 153
0.033223 0.666409 -0.095067 76 0 153
0.383820 0.712506 0.304537 76 0 153
-0.320920 0.712506 0.248019 76 0 153
0.238563 -0.010325 -0.218680 153 0 76
0.392248 -0.635209 -0.433087 153 76 0
-0.166869 -0.237496 -0.511675 76 0 153
-0.046941 0.035773 -0.355866 153 0 76
-0.560926 0.196895 -0.128704 153 0 76
-0.240092 -0.635209 -0.265098 153 76 0
0.495242 -0.635209 0.214660 76 153 0
0.138481 0.666409 0.372517 76 0 153
0.295991 0.666409 0.366201 76 0 153
-0.560926 -0.394807 0.394728 153 0 76
-0.257151 0.035773 0.493747 153 0 76
-0.151254 0.712506 0.180237 76 0 153
0.545421 -0.144082 -0.114433 76 153 0
-0.560926 0.511478 -0.202190 153 0 76
0.104804 0.712506 -0.082061 76 0 153
0.510848 -0.103817 0.045409 76 153 0
0.229514 -0.323589 -0.511675 76 0 153
-0.210412 -0.635209 -0.408689 153 76 0
-0.049090 0.666409 -0.450730 76 0 153
-0.560926 -0.459904 -0.326848 153 0 76
-0.276234 0.258169 0.551455 127 0 127
-0.280188 0.712506 -0.065725 76 0 153
0.065834 -0.635209 0.495729 153 76 0
0.331536 0.219640 0.516881 127 0 127
-0.542528 -0.681306 -0.391203 153 76 0
-0.247958 -0.537441 -0.500151 204 51 127
-0.129573 -0.326452 0.516881 127 0 127
-0.303664 0.639607 0.551455 127 0 127
-0.560926 -0.470725 0.338881 153 0 76
0.239775 0.666409 -0.338473 76 0 153
0.510848 0.628888 -0.464714 76 153 0
0.217321 0.198121 0.551455 127 0 127
-0.483770 0.035773 -0.306718 153 0 76
-0.113179 0.633099 0.516881 127 0 127
-0.154382 0.440261 -0.500151 0 0 255
-0.560926 0.160529 0.154030 153 0 76
-0.407043 0.666409 0.323016 76 0 153
-0.241166 -0.635209 0.257415 153 76 0
-0.283513 0.364970 0.551455 127 0 127
-0.069190 0.666409 -0.265024 76 0 153
-0.421825 0.035773 -0.021815 153 0 76
-0.132761 0.516720 0.516881 127 0 127
0.376141 -0.635209 -0.319013 153 76 0
0.252379 -0.635209 0.471246 153 76 0
-0.002854 -0.681306 -0.483836 153 76 0
-0.560926 -0.399931 0.291596 153 0 76
0.148656 0.088364 -0.511675 76 0 153
0.545421 -0.518515 -0.389807 76 153 0
0.256645 -0.635209 0.061215 153 76 0
0.419481 -0.010325 0.143998 153 0 76
0.135152 0.035773 -0.453456 153 0 76
-0.526352 0.558387 0.135288 153 0 76
-0.441027 0.099182 0.516881 127 0 127
0.510848 0.537356 0.492349 76 153 0
0.545421 0.027841 -0.321898 76 153 0
0.372663 0.035773 -0.324012 153 0 76
0.216720 -0.681306 -0.066850 153 76 0
0.510848 0.295865 0.019223 76 153 0
-0.383508 -0.162695 -0.511675 76 0 153
-0.017592 -0.010325 -0.280169 153 0 76
0.449015 0.712506 -0.245007 76 0 153
0.545421 0.693570 -0.034726 76 153 0
-0.062279 -0.411582 -0.500151 76 0 153
-0.476967 0.712506 0.186794 76 0 153
0.545421 -0.392695 0.404847 76 153 0
0.310870 -0.681306 -0.387000 153 76 0
-0.560926 0.287698 0.131362 153 0 76
0.424604 0.035773 -0.052319 153 0 76
-0.013358 0.712506 0.147924 76 0 153
0.510848 -0.151173 -0.425651 76 153 0
-0.167687 -0.681306 -0.377599 153 76 0
-0.345965 -0.635209 0.015720 153 76 0
-0.526352 0.413737 -0.194749 153 0 76
-0.526352 -0.336014 -0.385746 153 0 76
-0.526352 0.526618 0.380471 153 0 76
-0.476045 -0.398906 0.516881 127 0 127
0.179007 0.666409 -0.012592 76 0 153
0.510848 -0.359829 0.091711 76 153 0
0.069578 -0.681306 0.122545 153 76 0
-0.233310 -0.010325 -0.414826 153 0 76
-0.560926 -0.404534 -0.016448 153 0 76
-0.265557 0.154731 0.551455 127 0 127
-0.132943 0.659030 -0.500151 76 0 153
0.200759 -0.475489 0.551455 127 0 127
-0.082283 0.472234 -0.500151 76 0 153
-0.124133 -0.635209 -0.481125 153 76 0
-0.520404 0.613562 -0.546249 0 0 255
-0.500528 0.566280 0.551455 127 0 127
-0.483643 -0.635209 -0.123715 153 76 0
0.279993 -0.681306 -0.489525 153 76 0
-0.558045 0.398696 0.549866 127 0 127
0.510848 -0.636021 0.491601 127 0 127
-0.526352 0.511852 0.450685 153 0 76
-0.560926 -0.458876 -0.117359 153 0 76
0.545421 0.477537 -0.046965 76 153 0
-0.414375 0.643231 0.516881 127 0 127
-0.263319 0.712506 -0.370761 76 0 153
0.442881 0.244461 0.551455 127 0 127
0.114302 -0.448512 -0.500151 76 0 153
-0.526352 -0.119859 -0.341776 153 0 76
-0.560926 0.593135 -0.085054 153 0 76
0.510848 -0.544534 -0.255934 76 153 0
0.318756 -0.493086 -0.500151 76 0 153
0.356571 0.099769 0.551455 127 0 127
-0.085741 -0.681306 -0.075558 153 76 0
-0.526352 -0.393595 -0.103007 153 0 76
0.116643 -0.525841 -0.546249 204 51 127
0.503649 -0.010325 0.189574 153 0 76
-0.076184 0.712506 0.219759 76 0 153
0.177087 -0.635209 -0.342737 153 76 0
0.510848 0.305145 0.418560 76 153 0
-0.249009 -0.635209 0.122411 153 76 0
-0.560926 -0.640910 -0.140610 153 0 76
-0.450566 0.035773 0.340347 153 0 76
-0.109365 -0.010325 0.273913 153 0 76
-0.321851 0.035773 0.436390 153 0 76
0.358836 -0.681306 0.379436 153 76 0
-0.197344 -0.681306 0.412430 153 76 0
-0.088347 -0.010325 -0.325925 153 0 76
-0.526352 -0.280972 -0.446254 153 0 76
-0.425266 0.561826 -0.546249 0 0 255
0.306062 0.396103 -0.500151 76 0 153
-0.156045 0.124027 0.516881 127 0 127
0.545421 0.541265 0.126726 76 153 0
0.004285 -0.635209 -0.031233 153 76 0
-0.247857 0.515646 -0.546249 0 0 255
0.173521 -0.295067 0.551455 127 0 127
-0.526004 -0.210133 0.551455 127 0 127
0.545421 0.539728 -0.145446 76 153 0
-0.294061 0.712506 0.083244 76 0 153
-0.560926 0.165569 -0.453398 153 0 76
-0.491142 -0.635209 -0.055099 153 76 0
0.038993 0.712506 0.288850 76 0 153
0.424488 -0.157693 0.516881 127 0 127
0.303140 0.035773 -0.439716 153 0 76
-0.335163 0.666409 -0.444138 76 0 153
0.044326 0.712506 -0.281322 76 0 153
0.545421 -0.390583 -0.504410 76 153 0
-0.501427 -0.010325 0.333641 153 0 76
0.406612 0.666409 0.189487 76 0 153
-0.526352 -0.021633 0.447198 153 0 76
0.545421 0.375245 0.218684 76 153 0
0.510848 0.202492 -0.262525 76 153 0
-0.093783 0.712506 0.379645 76 0 153
0.328193 0.666409 -0.084490 76 0 153
-0.014834 -0.558159 -0.500151 204 51 127
0.214479 -0.681306 -0.174917 153 76 0
0.510848 -0.189001 -0.074826 76 153 0
0.353283 0.712506 0.087876 76 0 153
-0.526352 0.712045 -0.509163 76 0 153
-0.145972 0.712506 -0.283781 76 0 153
-0.002094 0.666409 0.018508 76 0 153
0.186545 0.666409 -0.537881 0 0 255
-0.560926 -0.494476 -0.458571 153 0 76
-0.526352 -0.334234 0.063827 153 0 76
0.545421 0.444575 -0.206703 76 153 0
0.234656 0.697502 0.551455 127 0 127
-0.526352 -0.382369 0.107131 153 0 76
-0.035002 0.666409 0.364296 76 0 153
0.418430 0.461974 0.551455 127 0 127
-0.384642 -0.110444 0.516881 127 0 127
-0.332825 -0.681306 0.444869 153 76 0
0.510848 0.225879 0.134404 76 153 0
0.534305 -0.681306 -0.227383 76 153 0
0.268147 0.587402 0.516881 127 0 127
0.521128 0.712507 -0.149575 76 0 153
0.545421 -0.544536 0.131072 76 153 0
-0.384348 0.322749 -0.500151 76 0 153
0.510848 -0.301304 -0.007577 76 153 0
0.510848 -0.577942 -0.077111 76 153 0
0.465436 -0.681306 -0.087160 153 76 0
-0.481396 0.712506 0.486458 76 0 153
-0.560926 -0.354447 -0.274377 153 0 76
-0.023362 -0.560670 0.516881 127 0 127
-0.382532 0.035773 0.465618 153 0 76
0.234098 -0.681306 0.374549 153 76 0
0.436615 0.035773 -0.442923 153 0 76
0.096836 -0.681306 -0.499466 153 76 0
0.248299 -0.617836 -0.546249 204 51 127
-0.326795 0.712506 -0.013098 76 0 153
-0.211824 -0.635209 -0.078969 153 76 0
0.402708 0.325684 0.551455 127 0 127
-0.526352 -0.669360 0.107069 153 0 76
-0.526352 -0.287923 0.343779 153 0 76
0.433319 -0.635209 0.156555 153 76 0
0.510848 0.105173 0.032787 76 153 0
0.545421 0.382160 -0.489181 76 153 0
-0.023444 0.035773 0.057725 153 0 76
0.545421 0.112033 0.459009 76 153 0
-0.560926 0.515666 -0.474156 153 0 76
-0.435030 0.035773 0.141001 153 0 76
0.283333 -0.335424 0.551455 127 0 127
-0.425547 -0.681306 0.223815 153 76 0
-0.560926 -0.545780 -0.119493 153 0 76
-0.181386 0.035773 0.216932 153 0 76
0.382046 0.003998 0.502476 127 0 127
0.383526 0.712506 0.006267 76 0 153
-0.416116 -0.010325 -0.108489 153 0 76
0.510848 -0.362528 0.170719 76 153 0
-0.419611 -0.681306 -0.354704 153 76 0
-0.208006 -0.635209 -0.194546 153 76 0
0.325133 -0.010325 0.032263 153 0 76
-0.321058 -0.010325 0.038569 153 0 76
-0.223068 -0.558039 0.551455 127 0 127
0.459997 -0.010325 0.338247 153 0 76
-0.137625 -0.508774 -0.500151 76 0 153
0.487744 0.313643 -0.511675 76 0 153
0.087431 -0.681306 -0.107208 153 76 0
-0.400237 -0.183024 0.516881 127 0 127
-0.081317 -0.010325 0.046798 153 0 76
-0.235892 0.712506 0.337196 76 0 153
-0.433925 0.035773 -0.464891 153 0 76
0.115820 -0.681306 0.419636 153 76 0
-0.462634 -0.319415 -0.511675 76 0 153
0.484155 0.035773 0.430458 76 153 0
-0.526352 -0.185521 0.283826 153 0 76
-0.180397 -0.010325 -0.469027 153 0 76
0.081918 0.035773 0.222335 153 0 76
-0.191353 0.712506 -0.338726 76 0 153
-0.235277 -0.681306 0.326652 153 76 0
0.221288 0.035773 0.357136 153 0 76
0.447025 0.035773 0.037710 153 0 76
0.283643 -0.635209 0.281872 153 76 0
0.165219 -0.681306 0.473747 153 76 0
0.377125 0.666409 0.361815 76 0 153
0.341665 0.217569 -0.500151 76 0 153
0.127481 0.272180 -0.511675 76 0 153
