ply
format ascii 1.0
element vertex 1279
property float x
property float y
property float z
property uchar red
property uchar green
property uchar blue
end_header
-0.113400 0.083163 -0.249023 153 0 76
0.021786 -0.621440 -0.143116 0 127 127
0.530490 -0.176201 0.008342 76 0 153
-0.178654 0.283360 -0.453987 76 0 153
-0.300509 -0.439778 0.546104 255 0 0
0.506620 0.689471 0.281406 76 0 153
0.222301 0.380638 0.546104 153 0 76
-0.040849 0.689470 -0.312334 255 0 0
0.042762 -0.252006 -0.453987 127 0 127
-0.427540 -0.252726 -0.453987 127 0 127
-0.101379 -0.296271 0.485905 255 0 0
-0.430194 -0.650953 0.379103 0 0 255
0.218269 0.071701 0.277886 153 0 76
-0.503256 -0.442425 -0.545661 0 255 0
-0.324235 -0.650953 -0.198747 0 0 255
0.072835 0.071701 0.426214 153 0 76
-0.098667 0.689470 0.154982 255 0 0
0.530490 -0.441613 -0.174234 76 0 153
0.450255 -0.223641 0.055148 127 127 0
0.048218 0.364635 -0.453987 76 0 153
-0.005434 -0.165116 0.546104 255 0 0
0.007545 0.071701 0.179945 153 0 76
0.230038 0.689470 -0.312582 255 0 0
-0.001597 0.355346 -0.511274 204 51 127
0.042912 0.643622 -0.467251 255 0 0
0.101625 -0.650953 0.099850 0 0 255
-0.508003 -0.333295 -0.511274 204 51 127
0.280624 0.516688 -0.511274 127 127 0
-0.001770 -0.696801 -0.322042 0 0 255
-0.391331 -0.621440 0.085414 0 127 127
0.496104 -0.466844 -0.260131 127 127 0
-0.292299 -0.472125 -0.499812 204 51 127
-0.063929 -0.621440 -0.381055 0 127 127
0.063355 -0.609978 0.330500 0 127 127
-0.511586 0.060239 -0.249651 76 0 153
-0.195940 -0.480723 0.485905 255 0 0
-0.438405 -0.609978 -0.408800 0 127 127
-0.338275 0.366772 -0.511274 204 51 127
0.048322 0.689470 -0.015583 255 0 0
0.142680 -0.300536 -0.511274 204 51 127
0.358682 -0.292920 -0.453987 127 0 127
-0.535485 -0.381842 0.101063 0 255 0
-0.001671 0.618465 0.511718 153 0 76
-0.569871 -0.493620 -0.099827 153 0 76
0.455268 0.489231 -0.476911 76 0 153
-0.484135 -0.228889 0.546104 255 0 0
0.165863 0.689470 0.429540 255 0 0
-0.514579 0.429332 0.546104 153 0 76
0.019348 0.643622 0.297922 255 0 0
0.281006 0.631591 -0.499812 255 0 0
-0.535485 -0.291234 0.378738 153 0 76
0.283992 -0.376695 0.546104 255 0 0
-0.529929 -0.624543 0.546104 255 0 0
-0.290595 0.643622 0.289199 255 0 0
-0.050766 0.498575 -0.453987 76 0 153
0.049495 -0.650953 -0.433386 0 0 255
-0.535485 0.051970 -0.103475 153 0 76
0.174524 0.435867 -0.476911 76 0 153
0.005137 -0.524581 0.546104 255 0 0
0.530490 0.347323 -0.541450 76 0 153
-0.044806 -0.661860 0.546104 255 0 0
0.473179 -0.485771 0.127797 127 127 0
0.530490 -0.283340 -0.018116 76 0 153
0.496104 0.427377 0.176365 153 76 0
0.041550 -0.650953 0.226529 0 0 255
-0.317499 0.071701 0.109074 153 0 76
0.093853 -0.621440 -0.373567 0 127 127
-0.569871 0.071632 -0.369060 153 0 76
0.530490 0.609433 0.477290 76 0 153
0.133628 -0.609978 -0.054876 0 127 127
-0.172256 -0.609978 0.020926 0 127 127
0.388351 -0.540230 -0.453987 127 0 127
0.530490 0.183276 -0.310938 76 0 153
0.372296 -0.448009 0.546104 255 0 0
0.473179 0.419141 -0.353054 153 76 0
0.322513 -0.632902 0.487453 0 127 127
-0.424588 -0.696801 0.270858 0 0 255
0.198666 -0.632902 0.492034 255 0 0
0.518069 -0.696801 0.375236 76 0 153
0.496104 0.335591 -0.227325 76 0 153
0.269937 -0.142647 -0.453987 127 0 127
0.530490 0.314212 -0.098636 76 0 153
0.450255 0.151137 -0.075076 153 76 0
0.496104 0.376060 0.301297 153 76 0
-0.224130 0.445843 0.485905 153 0 76
-0.218957 0.071701 -0.184635 153 0 76
-0.202314 0.643622 -0.144797 255 0 0
-0.130657 0.267544 0.546104 153 0 76
-0.215546 -0.650953 0.070900 0 0 255
0.392788 0.643622 -0.402213 255 0 0
-0.454260 0.135872 -0.511274 204 51 127
0.496104 0.239883 -0.261973 76 0 153
0.506775 0.689471 -0.297742 76 0 153
0.530490 0.603112 0.134200 76 0 153
-0.512561 0.263550 -0.171325 76 0 153
0.450255 -0.328987 -0.068885 127 127 0
0.035384 0.689470 -0.191766 255 0 0
0.518223 -0.502227 0.546104 255 0 0
-0.231168 0.492301 -0.453987 76 0 153
0.496104 -0.253303 0.205350 127 127 0
-0.569871 0.095461 -0.252057 153 0 76
0.076655 -0.280526 0.546104 255 0 0
0.209507 -0.696801 -0.020720 0 0 255
-0.368745 0.071701 0.379140 153 0 76
0.269368 -0.609978 -0.079128 0 127 127
-0.473142 -0.666030 0.546104 255 0 0
-0.089051 0.689470 -0.130933 255 0 0
0.178655 -0.609978 0.069231 0 127 127
-0.535485 -0.336572 -0.028248 0 255 0
-0.440080 0.083163 -0.378735 153 0 76
0.114384 -0.650953 -0.224023 0 0 255
-0.489637 0.521144 -0.088948 76 0 153
-0.535485 -0.296162 0.189210 153 0 76
0.450255 -0.244921 -0.315780 127 127 0
-0.535485 -0.641836 -0.131293 0 0 255
-0.447960 0.660499 0.546104 153 0 76
-0.569871 -0.384124 -0.117411 153 0 76
0.473179 0.303268 -0.157096 153 76 0
0.171998 -0.002073 -0.499812 204 51 127
-0.264876 0.666504 -0.545661 255 0 0
-0.284571 -0.075239 -0.511274 204 51 127
-0.309417 0.006547 0.511718 255 0 0
0.530490 -0.131340 0.317190 76 0 153
-0.518216 0.118056 0.546104 153 0 76
-0.489637 -0.352591 0.243307 0 255 0
-0.512561 0.393012 0.328265 153 0 76
-0.219532 -0.414888 -0.453987 127 0 127
-0.569871 0.396418 -0.289077 153 0 76
-0.376436 0.689470 -0.289670 255 0 0
0.530490 -0.222035 0.501154 76 0 153
-0.051591 -0.421711 -0.517181 204 51 127
0.167892 -0.059631 0.511718 255 0 0
0.117645 0.127001 -0.511274 204 51 127
0.412240 0.447644 0.485905 153 0 76
0.481565 -0.108635 0.546104 255 0 0
0.473179 -0.335743 0.284763 76 0 153
-0.523147 -0.696801 0.469515 0 0 255
0.516916 -0.696801 -0.216448 76 0 153
0.040448 -0.548840 0.485905 255 0 0
0.178351 -0.303675 -0.453987 127 0 127
0.207059 -0.650953 -0.291300 0 0 255
0.448416 -0.590302 0.546104 255 0 0
0.058005 0.083163 0.057709 153 0 76
-0.512561 0.484510 -0.215969 153 0 76
0.065456 0.573602 -0.511274 204 51 127
0.450255 -0.413223 0.418816 127 127 0
-0.388696 0.242963 -0.511274 204 51 127
0.496104 -0.055077 -0.245193 76 0 153
-0.569871 -0.655232 0.365647 153 0 76
0.202833 0.285038 -0.511274 204 51 127
0.238893 -0.076039 0.546104 255 0 0
-0.013035 0.643622 -0.223349 255 0 0
0.450255 -0.499101 -0.413839 127 127 0
0.186163 0.208034 0.546104 153 0 76
-0.535485 0.247251 0.040351 76 0 153
-0.535485 -0.262512 -0.487952 127 0 127
-0.161421 -0.085818 -0.499812 204 51 127
-0.507624 -0.632902 0.079200 0 255 0
0.496104 -0.660560 0.077313 76 0 153
0.530490 0.078800 -0.447863 76 0 153
0.263252 -0.194815 0.485905 255 0 0
0.530490 -0.458439 0.349097 76 0 153
0.530490 -0.690902 -0.360095 76 0 153
-0.079638 -0.621440 0.204192 0 127 127
-0.506483 0.348167 0.511718 153 0 76
0.366316 -0.485695 0.485905 255 0 0
-0.166890 -0.696801 -0.544223 0 0 255
0.443791 -0.696801 -0.264795 0 0 255
0.450255 0.483208 -0.235280 153 76 0
0.106054 0.683749 0.514267 255 0 0
0.530490 -0.526882 -0.270507 76 0 153
-0.125617 -0.609978 -0.338146 0 127 127
-0.489637 0.277297 0.481450 153 0 76
0.473179 0.208027 0.226823 153 76 0
-0.445905 -0.696801 0.080916 0 0 255
-0.489637 -0.350172 -0.396670 0 255 0
-0.525411 0.643622 0.129362 255 0 0
0.375710 0.609847 0.546104 153 0 76
-0.367084 0.426117 -0.499812 204 51 127
0.408310 -0.387968 0.485905 255 0 0
-0.535485 0.320414 -0.347274 153 0 76
-0.443225 -0.448970 0.485905 255 0 0
0.116629 -0.124083 -0.511274 204 51 127
-0.569871 -0.257732 -0.427093 153 0 76
-0.535485 -0.436512 -0.090581 153 0 76
-0.182313 -0.621440 -0.227307 0 127 127
0.474250 0.188032 0.546104 153 0 76
0.013544 -0.206720 0.485905 255 0 0
0.524005 0.482472 -0.545661 76 0 153
-0.489637 -0.316545 -0.074117 0 255 0
-0.207107 0.484752 -0.545661 127 127 0
-0.459833 0.689470 -0.091073 255 0 0
-0.160000 -0.198598 -0.453987 127 0 127
0.530490 -0.404399 -0.036015 76 0 153
-0.512561 -0.479033 0.099183 0 255 0
-0.569871 -0.127212 -0.474844 153 0 76
-0.231771 -0.650953 -0.312983 0 0 255
0.110071 0.083163 -0.453935 76 0 153
0.530490 0.426620 -0.266006 76 0 153
-0.236570 0.135013 -0.453987 76 0 153
-0.289370 -0.609978 -0.072890 0 127 127
-0.569871 0.412132 0.427879 153 0 76
0.197738 -0.313801 0.546104 255 0 0
-0.316572 -0.621440 0.132330 0 127 127
-0.489637 -0.394603 -0.344585 0 255 0
0.386208 0.138161 0.546104 153 0 76
0.029104 -0.175229 -0.511274 204 51 127
-0.010679 0.689470 0.057759 255 0 0
0.171322 -0.696801 0.500884 255 0 0
0.085314 0.498324 0.546104 153 0 76
0.198099 0.060239 0.498583 153 0 76
-0.175574 0.552913 0.546104 153 0 76
0.496104 -0.003902 0.333273 76 0 153
0.333232 -0.650953 -0.050404 0 0 255
0.450255 -0.452738 -0.088133 127 127 0
0.212653 0.689470 0.297591 255 0 0
-0.008886 0.083163 -0.160514 153 0 76
0.430378 -0.415942 0.546104 255 0 0
0.096125 -0.650953 -0.493992 204 51 127
0.530490 0.231723 -0.389414 76 0 153
-0.333617 -0.306781 -0.453987 127 0 127
0.108268 0.338712 0.546104 153 0 76
-0.340717 -0.361554 -0.511274 204 51 127
-0.489637 0.482259 0.139320 76 0 153
0.390168 -0.128570 0.492712 255 0 0
0.318555 -0.650953 -0.313792 0 0 255
-0.227205 0.689470 -0.358786 255 0 0
0.187768 -0.439176 -0.545661 0 255 0
0.473179 0.266810 0.342023 153 76 0
-0.142599 -0.341897 -0.511274 204 51 127
-0.400309 -0.065795 -0.511274 204 51 127
0.253189 -0.534905 0.546104 255 0 0
0.473179 0.141488 -0.339587 76 0 153
0.450255 -0.360239 -0.360607 127 127 0
-0.569871 0.359923 -0.218459 153 0 76
-0.101951 0.083163 -0.363651 153 0 76
-0.520271 0.689470 -0.243765 255 0 0
0.213530 -0.696801 0.190742 0 0 255
-0.201375 0.643622 0.055165 255 0 0
0.473179 -0.511122 -0.314901 127 127 0
0.346764 -0.098593 0.608064 0 0 255
-0.170329 0.083163 0.096747 153 0 76
-0.308550 0.083163 -0.311396 153 0 76
0.450255 0.201316 -0.000705 153 76 0
-0.408125 -0.154024 -0.511274 204 51 127
0.496104 0.008325 -0.210884 76 0 153
0.374570 -0.481700 -0.499812 204 51 127
-0.374869 0.293788 -0.453987 76 0 153
-0.265001 -0.650953 -0.027394 0 0 255
0.473179 -0.530724 0.022227 127 127 0
0.249259 0.643622 0.342312 255 0 0
0.023301 0.643622 0.102210 255 0 0
0.011605 0.689470 -0.106173 255 0 0
-0.355133 0.624774 0.511718 255 0 0
0.402799 -0.629737 -0.476911 127 0 127
-0.569871 -0.629788 -0.359449 153 0 76
-0.042830 0.472297 0.546104 153 0 76
-0.269410 0.689470 0.170051 255 0 0
-0.489637 0.123482 -0.126632 76 0 153
-0.185930 0.689470 -0.433982 255 0 0
-0.431698 0.083163 0.295211 153 0 76
0.094257 -0.609978 -0.306464 0 127 127
0.496104 0.608476 0.052113 76 0 153
0.228409 0.643622 0.412443 255 0 0
-0.512561 0.358785 0.387801 76 0 153
-0.079412 -0.565308 -0.453987 127 0 127
0.411071 -0.433261 -0.545661 0 255 0
0.496104 -0.185924 -0.048140 76 0 153
-0.284277 0.071701 -0.190379 153 0 76
-0.054354 0.643622 -0.425677 255 0 0
-0.569871 0.688416 -0.379042 153 0 76
-0.353272 0.643622 0.226894 255 0 0
0.391730 -0.323070 0.485905 255 0 0
0.450255 0.562806 0.391587 153 76 0
-0.569871 -0.172803 0.487679 153 0 76
0.496104 0.189028 0.446877 76 0 153
-0.569871 -0.507950 0.164477 153 0 76
-0.376192 -0.650953 -0.512772 0 0 255
-0.372683 0.537736 0.546104 153 0 76
-0.256876 0.451065 0.546104 153 0 76
-0.371801 -0.489325 -0.545661 0 255 0
-0.489637 -0.220159 0.376536 0 255 0
0.136170 0.643622 -0.386689 255 0 0
0.149753 0.417942 0.546104 153 0 76
-0.569871 0.085334 0.042821 153 0 76
-0.206016 -0.436607 0.546104 255 0 0
0.351001 0.535131 0.485905 153 0 76
0.129219 0.083163 -0.387505 153 0 76
-0.134142 0.196769 -0.511274 204 51 127
0.530490 -0.640432 -0.275288 76 0 153
-0.395542 -0.650953 0.207183 0 0 255
0.352112 -0.644872 0.546104 255 0 0
-0.305214 0.399288 0.485905 153 0 76
-0.293148 -0.152331 0.485905 255 0 0
-0.489637 0.360568 0.127740 76 0 153
0.530490 0.259624 -0.054273 76 0 153
-0.065385 0.689470 -0.376484 255 0 0
-0.508438 0.689470 0.056705 255 0 0
0.467354 0.689470 -0.071166 255 0 0
0.530490 -0.573244 -0.472787 76 0 153
0.225233 0.083163 0.041934 153 0 76
0.255446 0.564571 -0.454572 76 0 153
-0.335740 0.190985 0.485905 153 0 76
0.450255 0.353255 -0.022344 153 76 0
-0.535485 0.329487 0.320691 153 0 76
0.213037 -0.609978 0.136831 0 127 127
0.292062 0.372406 -0.453987 76 0 153
-0.208194 -0.041949 -0.511274 204 51 127
-0.499904 -0.696801 -0.399058 0 0 255
0.530490 0.071380 0.003265 76 0 153
0.007086 -0.295170 0.546104 255 0 0
-0.494871 0.169871 0.485905 153 0 76
-0.473263 0.689470 0.243540 255 0 0
-0.210130 -0.609978 -0.377906 0 127 127
-0.057508 -0.650953 0.071262 0 0 255
-0.214417 0.025390 0.511718 153 0 76
-0.228389 -0.696801 -0.244038 0 0 255
0.145342 -0.621440 -0.119255 0 127 127
0.200790 0.071701 -0.399463 153 0 76
-0.189885 0.658957 0.546104 153 0 76
-0.439285 0.689470 -0.316548 255 0 0
-0.535485 0.229536 -0.289530 153 0 76
0.356511 -0.335372 -0.511274 204 51 127
-0.222638 -0.696801 0.278606 0 0 255
0.045590 -0.065178 0.546104 255 0 0
0.530490 0.514921 0.484613 76 0 153
-0.504815 0.643622 0.316295 255 0 0
-0.569871 -0.637100 -0.057345 153 0 76
0.530490 0.177560 -0.174192 76 0 153
0.171398 -0.696801 -0.409866 0 0 255
0.530490 -0.033593 -0.403802 76 0 153
-0.503695 0.643622 -0.429193 255 0 0
-0.535485 -0.187983 0.223146 153 0 76
0.043569 -0.650953 0.039220 0 0 255
-0.390452 -0.609978 -0.135639 0 127 127
-0.520640 -0.563598 -0.159269 153 0 76
-0.295652 -0.696801 0.344704 0 0 255
-0.563510 -0.110580 0.508852 153 0 76
-0.507065 -0.128570 0.182775 0 255 0
-0.008916 -0.696801 -0.186344 0 0 255
0.022412 0.164431 0.546104 153 0 76
0.002397 -0.696801 0.192606 0 0 255
0.473179 0.283962 0.271898 153 76 0
-0.109327 0.643622 0.041258 255 0 0
0.001533 -0.200075 -0.453987 127 0 127
-0.175610 -0.650953 -0.098777 0 0 255
0.046857 0.259555 -0.511274 204 51 127
-0.535485 -0.384125 -0.540392 153 0 76
-0.092077 0.083163 0.331342 153 0 76
0.184842 -0.130119 0.546104 255 0 0
-0.267287 -0.692795 -0.545661 0 0 255
-0.489637 0.061708 -0.166837 153 0 76
-0.283249 0.689470 -0.197384 255 0 0
-0.231858 0.071701 -0.303331 153 0 76
-0.243385 0.689470 0.256068 255 0 0
-0.512561 -0.324658 -0.272380 0 255 0
-0.249787 -0.566595 -0.545661 0 255 0
0.433475 -0.650953 -0.074505 0 0 255
0.270707 -0.696801 0.498016 0 0 255
0.450255 -0.538584 0.367379 127 127 0
-0.179271 -0.577644 0.485905 255 0 0
-0.193500 0.071701 0.216615 153 0 76
0.397860 -0.650953 0.149103 0 0 255
0.131269 -0.696801 -0.465163 0 0 255
0.124530 0.071701 -0.038401 153 0 76
-0.512561 0.124445 -0.240350 76 0 153
-0.506365 -0.172902 -0.511274 204 51 127
-0.535485 -0.439952 -0.341956 153 0 76
-0.054435 -0.290521 -0.511274 204 51 127
-0.393619 0.689470 0.055918 255 0 0
-0.288450 0.643622 0.042221 255 0 0
0.240117 0.519572 0.546104 153 0 76
0.450255 0.198176 -0.244145 153 76 0
-0.091675 0.298654 -0.453987 76 0 153
0.496104 0.160869 0.264312 76 0 153
-0.222757 0.071701 0.007748 153 0 76
-0.569871 -0.572027 -0.232154 153 0 76
0.453109 -0.632902 0.427644 0 0 255
0.287598 0.234729 0.485905 153 0 76
0.013138 0.020424 0.546104 153 0 76
0.001693 0.511586 -0.499812 127 127 0
-0.164666 0.643622 0.248127 255 0 0
-0.431725 -0.162344 0.485905 255 0 0
-0.401988 -0.650953 0.007899 0 0 255
-0.183100 0.312378 -0.511274 204 51 127
-0.258405 0.076974 -0.499812 204 51 127
-0.569871 0.510625 -0.033075 153 0 76
-0.023260 -0.455288 0.485905 255 0 0
-0.309309 0.071701 -0.080316 153 0 76
0.135911 -0.696801 -0.351716 0 0 255
0.450255 -0.270180 0.429749 127 127 0
0.530490 0.492123 0.060595 76 0 153
-0.512561 -0.316046 -0.189346 0 255 0
-0.569871 0.472555 0.500043 153 0 76
0.134068 0.291818 -0.511274 204 51 127
-0.415937 0.351635 0.546104 153 0 76
-0.446926 0.643622 -0.362725 255 0 0
-0.405644 0.562488 -0.545661 127 127 0
-0.043558 -0.394778 0.546104 255 0 0
-0.569871 0.102326 0.253371 153 0 76
0.372551 -0.609978 0.446861 0 127 127
0.496104 -0.281964 -0.347035 76 0 153
0.314665 -0.428666 -0.453987 127 0 127
-0.569871 -0.443136 0.247221 153 0 76
-0.212556 0.360172 0.546104 153 0 76
-0.482188 0.643622 0.421806 255 0 0
0.433101 0.689470 0.442899 255 0 0
-0.569871 0.488986 -0.187827 153 0 76
0.473179 0.320975 -0.293692 76 0 153
-0.489637 -0.505937 -0.289499 0 255 0
0.455572 0.363567 0.546104 153 0 76
-0.438235 -0.373013 0.546104 255 0 0
-0.086824 0.528345 0.485905 153 0 76
-0.398558 0.689470 0.349950 255 0 0
-0.233545 -0.194985 -0.453987 127 0 127
0.496104 -0.415824 -0.329600 76 0 153
-0.512561 -0.272545 0.032771 0 255 0
0.322096 -0.650953 -0.492394 0 0 255
-0.041064 -0.337367 0.485905 255 0 0
0.084113 -0.609978 -0.170278 0 127 127
0.266830 0.689470 -0.034926 255 0 0
0.454671 -0.128570 -0.443750 127 127 0
0.457313 -0.632902 -0.399514 0 127 127
-0.569871 -0.601568 -0.173650 153 0 76
-0.037031 -0.650953 0.258601 0 0 255
0.393141 -0.550530 0.485905 255 0 0
0.483061 -0.015776 -0.511274 76 0 153
0.530490 -0.539546 0.308283 76 0 153
0.447444 -0.217591 -0.511274 204 51 127
-0.435139 0.514572 0.485905 153 0 76
0.287750 0.597998 0.610571 76 153 0
0.377869 -0.152269 -0.453987 127 0 127
-0.512561 -0.445135 0.320886 0 255 0
-0.569871 0.188225 0.063699 153 0 76
-0.037562 0.116914 0.485905 153 0 76
0.448827 0.274374 -0.499812 204 51 127
0.101180 0.135981 0.485905 153 0 76
-0.431083 0.071701 -0.023892 153 0 76
0.174952 0.285507 0.485905 153 0 76
0.496103 -0.690284 0.200208 76 0 153
-0.303469 0.083163 0.400015 153 0 76
-0.569871 -0.696536 0.131720 153 0 76
-0.569871 -0.118959 0.261774 153 0 76
0.496104 -0.484617 0.234578 76 0 153
0.140699 -0.427592 -0.453987 127 0 127
0.027661 0.394769 0.546104 153 0 76
0.496104 0.051535 -0.276074 76 0 153
0.473180 -0.537749 -0.458785 127 0 127
0.126204 -0.598511 0.546104 255 0 0
-0.041817 0.643622 0.374543 255 0 0
-0.569871 0.348778 0.473845 153 0 76
0.496104 0.163798 0.044586 76 0 153
-0.569871 0.395590 0.299766 153 0 76
0.496104 -0.346062 0.011325 76 0 153
-0.153932 -0.429008 0.485905 255 0 0
-0.135307 -0.091246 0.546104 255 0 0
0.473179 -0.426252 0.149851 127 127 0
-0.512561 0.264912 0.402841 76 0 153
0.109733 -0.317586 0.485905 255 0 0
0.221586 -0.609978 -0.410418 0 127 127
0.009065 -0.277901 -0.511274 204 51 127
-0.255717 0.264595 -0.453987 76 0 153
0.530490 -0.071125 0.132719 76 0 153
0.530490 0.082043 -0.086851 76 0 153
0.496104 0.369296 0.396929 153 76 0
0.385199 -0.696801 -0.187061 0 0 255
-0.500128 0.037799 0.546104 153 0 76
-0.569871 -0.177242 -0.383207 153 0 76
0.243866 0.689470 -0.374389 255 0 0
-0.060061 0.689470 -0.488848 255 0 0
-0.117356 -0.553862 0.546104 255 0 0
0.450255 0.397177 0.072981 153 76 0
-0.227640 0.435749 -0.511274 127 127 0
-0.428942 0.083163 0.087271 153 0 76
-0.437683 -0.337626 -0.453987 127 0 127
0.120975 0.083163 -0.211887 153 0 76
-0.107113 0.643622 0.412871 255 0 0
0.202198 0.210664 -0.453987 76 0 153
0.111160 0.643622 0.257660 255 0 0
-0.017668 0.689470 0.486755 255 0 0
-0.512209 0.060239 -0.448909 153 0 76
-0.277387 0.349364 -0.511274 204 51 127
-0.535485 0.380120 -0.416125 153 0 76
-0.569871 -0.459367 0.440510 153 0 76
-0.551348 0.199034 -0.545661 153 0 76
-0.160111 0.643622 0.364929 255 0 0
-0.419837 0.096302 0.546104 153 0 76
0.132122 0.071701 0.237478 153 0 76
0.390447 -0.696801 0.355921 0 0 255
0.474342 0.643622 -0.024365 255 0 0
0.530490 -0.241955 0.106628 76 0 153
0.385636 -0.200340 0.485905 255 0 0
-0.131679 0.500201 -0.453987 76 0 153
-0.535485 -0.262695 -0.069445 153 0 76
-0.159773 0.643622 -0.256174 255 0 0
-0.484344 0.490088 0.546104 153 0 76
0.496104 -0.370848 0.410927 76 0 153
-0.287149 -0.650953 0.503955 255 0 0
0.287985 -0.660094 0.546104 255 0 0
0.496104 0.342686 0.103501 76 0 153
-0.569871 0.204071 0.460074 153 0 76
-0.123824 -0.238997 0.546104 255 0 0
-0.489637 0.354726 0.204239 76 0 153
0.473179 0.453303 0.034311 76 0 153
-0.535485 -0.082831 -0.121203 153 0 76
-0.512561 -0.566681 0.355352 0 255 0
0.496104 0.596710 -0.318813 76 0 153
-0.569871 0.543612 0.442669 153 0 76
0.438210 0.071701 -0.047931 153 0 76
0.398209 0.689470 0.289577 255 0 0
-0.142662 -0.369006 0.546104 255 0 0
0.236889 0.071701 0.340024 153 0 76
-0.323510 0.083163 -0.381969 153 0 76
0.474523 0.625474 0.546104 153 0 76
-0.051566 0.221340 -0.511274 204 51 127
0.392230 0.173474 -0.511274 204 51 127
-0.512561 -0.291266 -0.389735 0 255 0
0.452214 0.594288 -0.545661 127 127 0
-0.108168 -0.140474 -0.453987 127 0 127
0.418193 0.083163 -0.377440 153 0 76
0.079085 0.448659 0.485905 153 0 76
0.530490 -0.111536 0.475790 76 0 153
0.324206 0.643622 0.267280 255 0 0
0.530490 0.204604 0.395041 76 0 153
-0.569871 -0.140697 0.025482 153 0 76
-0.078306 -0.219528 0.485905 255 0 0
-0.340606 -0.696801 -0.315636 0 0 255
-0.173535 0.396983 0.511718 153 0 76
0.134628 0.643622 -0.060726 255 0 0
-0.219380 -0.346714 -0.453987 127 0 127
-0.535485 0.542425 0.086299 153 0 76
-0.438419 -0.421711 -0.545095 0 255 0
-0.512561 -0.532456 0.192594 153 0 76
-0.059681 -0.101134 0.606218 0 0 255
-0.306233 0.643622 0.368858 255 0 0
-0.512561 0.446285 0.226146 153 0 76
0.530490 0.382503 -0.015230 76 0 153
-0.295103 -0.696801 0.208179 0 0 255
0.496104 -0.398442 0.296255 76 0 153
-0.412954 -0.696801 -0.209400 0 0 255
-0.372806 -0.592043 0.511718 255 0 0
0.530490 0.196802 -0.066836 76 0 153
-0.190213 -0.650953 0.180876 0 0 255
-0.368917 0.643622 0.318725 255 0 0
0.265668 0.101571 -0.499812 204 51 127
0.530490 0.528777 0.010251 76 0 153
-0.509946 -0.464716 0.485905 0 255 0
-0.505015 0.060239 -0.047298 76 0 153
-0.569871 0.404467 -0.091053 153 0 76
0.058562 0.294710 -0.453987 76 0 153
0.496104 0.157122 0.130566 76 0 153
-0.535485 -0.234999 0.265065 153 0 76
-0.446940 0.313211 -0.453987 76 0 153
0.000619 0.071701 -0.030660 153 0 76
0.361633 -0.696801 -0.385910 0 0 255
-0.350980 0.689470 0.129502 255 0 0
-0.233566 -0.696801 0.111773 0 0 255
0.098607 -0.474888 -0.499812 204 51 127
-0.291390 0.643622 -0.114895 255 0 0
-0.201270 -0.263037 0.485905 255 0 0
-0.446631 -0.621440 0.326476 0 127 127
-0.035267 0.394630 -0.476911 76 0 153
0.259248 -0.650953 0.306994 0 0 255
-0.489637 0.319338 -0.258336 76 0 153
-0.489637 -0.225341 -0.411478 0 255 0
-0.045970 0.255714 -0.453987 76 0 153
0.162252 0.689470 0.021550 255 0 0
-0.476548 -0.696801 -0.070872 0 0 255
0.384684 0.689470 0.367701 255 0 0
0.473179 0.443427 0.359527 76 0 153
0.316557 -0.650953 0.207344 0 0 255
0.530490 0.030648 0.114005 76 0 153
0.083030 0.643622 0.329469 255 0 0
0.311172 -0.512961 0.546104 255 0 0
-0.042052 0.535765 0.546104 153 0 76
-0.416927 0.416231 -0.545661 127 127 0
0.473179 -0.438828 -0.145406 76 0 153
-0.222586 0.689470 -0.261696 255 0 0
-0.512561 0.121132 -0.067746 153 76 0
0.530490 -0.438835 0.103224 76 0 153
-0.195902 -0.194031 0.485905 255 0 0
0.473179 -0.476650 0.334211 127 127 0
-0.569871 0.157484 -0.055765 153 0 76
0.134164 0.643622 -0.228778 255 0 0
0.324644 0.689470 -0.218108 255 0 0
0.496104 0.500435 -0.412112 76 0 153
0.496104 0.012097 0.441896 76 0 153
-0.336076 0.643622 -0.299633 255 0 0
-0.535485 0.145968 -0.293607 153 0 76
-0.508843 -0.128570 0.455380 0 255 0
0.312192 0.643622 0.453576 255 0 0
0.101647 0.643622 -0.486537 204 51 127
-0.213538 0.535683 -0.511274 204 51 127
-0.334562 0.689470 0.483468 255 0 0
-0.535485 0.297543 0.217881 153 0 76
-0.036685 0.071701 0.050491 153 0 76
-0.354086 -0.650953 0.439504 0 0 255
-0.513892 -0.608815 0.001634 153 0 76
-0.523157 -0.596217 -0.086607 153 0 76
-0.359449 -0.186770 0.546104 255 0 0
0.023241 -0.650953 -0.276638 0 0 255
-0.404710 0.643622 0.458023 255 0 0
-0.093376 0.495782 -0.511274 127 127 0
-0.433400 0.643622 0.066994 255 0 0
0.469810 -0.128570 0.248469 127 127 0
-0.326366 0.481451 -0.545661 127 127 0
-0.489637 0.116385 -0.409594 76 0 153
-0.569871 -0.648079 0.492782 153 0 76
-0.077355 0.124873 -0.453987 76 0 153
0.031764 -0.650953 -0.087176 0 0 255
0.450255 0.511757 0.270486 153 76 0
0.530490 -0.262147 0.373357 76 0 153
0.316767 0.411463 -0.511274 204 51 127
-0.535485 -0.191839 0.345134 0 255 0
-0.535485 -0.105283 0.392841 153 0 76
-0.457285 -0.632477 -0.545661 0 255 0
-0.302490 0.540970 -0.511274 204 51 127
0.269454 0.459569 0.485905 153 0 76
-0.535485 0.311910 0.036304 153 0 76
0.314516 0.168954 -0.453987 76 0 153
0.522386 -0.696801 -0.481400 76 0 153
0.146765 -0.650953 0.029644 0 0 255
-0.569871 -0.546729 -0.295993 153 0 76
-0.192298 0.071701 0.404755 153 0 76
-0.434064 -0.696801 -0.375103 0 0 255
-0.040768 0.643622 0.102674 255 0 0
0.011941 0.551528 0.485905 153 0 76
-0.489637 -0.404538 -0.435555 0 255 0
0.311324 -0.650953 -0.108301 0 0 255
-0.376762 0.643622 -0.092223 255 0 0
0.093604 -0.617754 -0.545661 0 255 0
0.309574 -0.163444 -0.511274 204 51 127
0.496104 -0.103362 0.027800 76 0 153
0.026837 0.455254 -0.511274 127 127 0
0.473179 -0.350663 -0.157776 127 127 0
0.348265 -0.143450 0.546104 255 0 0
0.496104 0.291578 0.047354 76 0 153
-0.535485 -0.627157 0.162571 153 0 76
0.080168 0.083163 0.297868 153 0 76
-0.482144 -0.696801 -0.199695 0 0 255
0.250222 0.063717 -0.453987 153 0 76
0.420961 -0.512819 -0.545661 0 255 0
-0.489637 -0.427854 0.129521 0 255 0
-0.554563 0.059843 -0.545661 153 0 76
0.062101 0.071701 0.135777 153 0 76
0.530490 0.055902 0.342709 76 0 153
-0.535485 0.216550 -0.087705 153 0 76
-0.512561 0.556731 0.400728 76 0 153
0.414805 0.200077 -0.453987 76 0 153
0.473179 -0.175878 0.162506 127 127 0
-0.153640 0.575054 -0.499812 204 51 127
-0.171824 -0.696801 0.545348 255 0 0
0.311668 -0.696801 -0.257229 0 0 255
-0.224139 0.638470 -0.499812 204 51 127
-0.512561 -0.238231 0.492616 255 0 0
0.496104 -0.488204 -0.068236 76 0 153
-0.442916 -0.581078 0.485905 255 0 0
0.414258 0.689470 -0.510330 255 0 0
-0.346650 -0.151975 -0.453987 127 0 127
0.090902 0.224695 -0.453987 76 0 153
-0.395745 -0.125420 0.546104 255 0 0
-0.019035 0.083163 -0.259721 153 0 76
0.008090 -0.497609 -0.499812 0 255 0
0.388518 -0.349094 -0.453987 127 0 127
-0.067691 0.071701 -0.064213 153 0 76
-0.039241 0.424954 0.485905 153 0 76
0.122569 0.689470 0.138877 255 0 0
-0.569871 0.000002 -0.473203 153 0 76
-0.569871 0.135306 0.170393 153 0 76
0.011077 -0.650953 -0.480996 0 0 255
0.530490 -0.566297 -0.199600 76 0 153
0.473179 -0.212320 -0.194986 127 127 0
-0.547517 -0.288597 0.546104 255 0 0
-0.059849 0.689470 0.313173 255 0 0
-0.489637 -0.164702 0.302957 0 255 0
0.530490 -0.258929 -0.525400 76 0 153
-0.463757 0.459263 -0.476911 76 0 153
0.214119 0.643622 0.142463 255 0 0
0.320346 0.302774 0.546104 153 0 76
-0.479703 -0.514244 -0.476911 127 0 127
0.305617 -0.200115 0.546104 255 0 0
-0.067639 -0.145387 -0.511274 204 51 127
-0.049169 -0.260829 0.546104 255 0 0
0.530490 0.377471 0.494299 153 0 76
-0.370159 0.071701 0.191382 153 0 76
0.450314 0.414380 -0.539056 127 127 0
0.419070 0.689470 -0.032593 255 0 0
0.072099 -0.488919 0.546104 255 0 0
-0.384171 -0.394587 0.508830 255 0 0
0.530490 -0.636630 0.026282 76 0 153
0.223915 -0.493432 -0.499812 204 51 127
-0.296113 -0.650953 0.385416 0 0 255
0.496104 0.005907 0.218144 76 0 153
0.496104 -0.138720 -0.169630 76 0 153
0.324833 0.071701 -0.060615 153 0 76
-0.404264 0.643622 -0.408169 255 0 0
-0.256522 0.428263 -0.453987 76 0 153
-0.348196 -0.684230 0.546104 255 0 0
-0.440508 0.689470 -0.427491 255 0 0
-0.325934 -0.409476 -0.476911 127 0 127
-0.263350 0.621752 0.546104 153 0 76
-0.389423 0.207455 -0.453987 76 0 153
-0.083392 -0.609978 0.350544 0 127 127
-0.512561 0.174781 0.244953 153 0 76
0.089605 -0.688384 0.511718 255 0 0
0.530490 0.410329 -0.471062 76 0 153
-0.512926 0.689470 0.454216 255 0 0
0.496104 -0.157564 -0.271357 76 0 153
-0.275117 -0.133839 0.546104 255 0 0
-0.054421 -0.632902 0.493615 255 0 0
-0.535485 0.523823 0.272282 153 0 76
-0.467107 -0.696801 -0.273009 0 0 255
0.456636 -0.488788 0.546104 255 0 0
-0.304479 0.083163 0.473377 153 0 76
-0.360506 0.244997 0.546104 153 0 76
-0.535485 -0.495024 -0.156744 153 0 76
0.094969 -0.423500 0.485905 255 0 0
0.530490 0.616517 0.194406 76 0 153
0.330715 -0.609978 0.274411 0 127 127
-0.535485 -0.114572 -0.271453 153 0 76
-0.072768 -0.371598 -0.453987 127 0 127
0.439112 0.071701 -0.433445 153 76 0
-0.102151 0.689470 -0.299305 255 0 0
0.530490 0.297206 -0.259306 76 0 153
0.355979 0.220524 -0.453987 76 0 153
-0.258893 0.689470 0.329461 255 0 0
0.530490 0.242023 0.035062 76 0 153
0.264609 0.071701 0.152828 153 0 76
-0.085428 0.371867 0.546104 153 0 76
-0.425474 -0.650953 -0.104182 0 0 255
0.286653 -0.500479 -0.499812 0 255 0
-0.535485 -0.045028 -0.433379 153 0 76
-0.095847 -0.650953 -0.435086 0 0 255
-0.063167 -0.481268 -0.545661 0 255 0
-0.155371 0.120371 -0.476911 76 0 153
0.473179 0.215405 -0.379327 153 76 0
0.527625 0.090623 0.536520 153 0 76
0.250307 0.386881 -0.511274 204 51 127
0.496104 -0.371398 -0.536312 76 0 153
-0.004743 0.643622 -0.291796 255 0 0
-0.338476 0.689470 -0.482849 255 0 0
0.473179 0.187608 -0.121645 153 76 0
-0.535485 -0.019045 -0.172426 153 0 76
0.364519 0.083163 0.112228 153 0 76
0.069100 0.207477 0.485905 153 0 76
-0.184082 -0.394515 -0.511274 204 51 127
-0.056760 0.643622 -0.162368 255 0 0
-0.182172 -0.269647 -0.511274 204 51 127
0.198141 -0.576462 -0.499812 204 51 127
0.530490 -0.419417 0.199210 76 0 153
0.110217 -0.529154 0.485905 255 0 0
0.480180 0.084326 0.096941 153 76 0
-0.444031 -0.528413 0.546104 255 0 0
0.496104 -0.286300 -0.068705 76 0 153
0.473179 -0.271604 0.152715 127 127 0
-0.535485 -0.482561 0.364329 153 0 76
0.083359 -0.018264 0.546104 255 0 0
-0.535485 0.540930 0.493403 153 0 76
0.292559 0.689470 -0.477680 255 0 0
0.292513 -0.311474 -0.511274 204 51 127
0.530490 -0.541075 -0.351925 76 0 153
-0.535485 -0.087092 -0.339318 153 0 76
0.281239 -0.650953 0.379480 0 0 255
0.226072 0.318286 0.546104 153 0 76
-0.070322 -0.650953 -0.069447 0 0 255
0.177206 0.325888 -0.453987 76 0 153
-0.521302 0.129102 0.341786 153 0 76
-0.102093 -0.650953 0.402561 0 0 255
0.188980 0.643622 -0.170505 255 0 0
0.200488 -0.696801 -0.485648 0 0 255
0.134067 0.397820 -0.499812 204 51 127
-0.037915 0.555241 -0.511274 127 127 0
0.521429 -0.338822 0.546104 255 0 0
-0.300625 -0.522125 0.546104 255 0 0
-0.396419 -0.301357 0.511718 255 0 0
-0.336132 0.643622 -0.414767 255 0 0
0.496104 -0.197876 0.391033 76 0 153
0.473179 -0.573644 -0.309154 76 153 0
0.473180 0.312693 -0.453988 76 0 153
0.450255 0.500617 -0.004820 153 76 0
0.057708 0.125234 -0.511274 204 51 127
-0.149074 -0.549899 -0.511274 204 51 127
-0.512227 -0.352172 -0.453987 0 255 0
0.530490 0.539442 -0.106210 76 0 153
0.530490 -0.187894 0.444704 76 0 153
-0.145415 0.183916 0.546104 153 0 76
0.141429 -0.650953 -0.310780 0 0 255
-0.139929 -0.696801 0.327831 0 0 255
0.530490 -0.439093 -0.384935 76 0 153
0.147883 0.503601 -0.453987 76 0 153
-0.200136 -0.650953 0.386750 0 0 255
0.473179 0.441469 -0.199068 153 76 0
0.496104 -0.465922 0.460766 76 0 153
0.530490 0.618008 -0.196269 76 0 153
0.251820 0.643622 0.029874 255 0 0
-0.132756 0.689470 -0.377344 255 0 0
-0.091047 0.626247 0.546104 153 0 76
0.230741 -0.650953 -0.053776 0 0 255
-0.259805 0.689470 0.453727 255 0 0
0.496104 -0.062800 -0.056715 76 0 153
0.210185 0.109589 -0.453987 76 0 153
-0.444790 0.595078 0.579770 76 153 0
0.342117 -0.650953 -0.418827 0 0 255
0.335391 0.643622 -0.381400 255 0 0
0.060650 0.689470 0.169275 255 0 0
0.433298 -0.650953 0.016669 0 0 255
-0.087083 -0.146457 0.546104 255 0 0
0.464597 0.448244 0.546104 153 0 76
-0.535485 0.589799 -0.324940 153 0 76
-0.539109 -0.412865 0.546104 255 0 0
0.001065 0.143772 -0.453987 76 0 153
0.348628 -0.567328 0.546104 255 0 0
-0.030667 -0.650953 0.317836 0 0 255
-0.569520 0.689471 0.229502 153 0 76
0.197854 0.643622 0.085180 255 0 0
-0.257039 -0.650953 0.304022 0 0 255
-0.489637 -0.340389 0.091344 0 255 0
0.530490 0.663216 -0.410969 76 0 153
-0.097388 -0.696801 0.460490 0 0 255
0.530490 -0.615927 0.497231 76 0 153
0.473179 -0.430590 0.004430 127 127 0
-0.436460 -0.559631 -0.499812 204 51 127
-0.332447 -0.389585 0.546104 255 0 0
-0.466046 0.251740 -0.511274 204 51 127
0.270881 -0.486731 0.485905 255 0 0
-0.569871 -0.050735 0.090748 153 0 76
0.107314 -0.533465 -0.476911 127 0 127
0.530490 -0.167782 -0.397362 76 0 153
0.434510 0.320866 0.485905 153 0 76
-0.314561 0.193925 -0.499812 204 51 127
-0.508599 -0.672411 -0.545661 0 0 255
0.260234 0.597455 0.546104 153 0 76
-0.535485 -0.613965 0.438985 153 0 76
0.203032 -0.650953 -0.150743 0 0 255
0.021240 0.643622 0.037604 255 0 0
0.052437 -0.254082 0.485905 255 0 0
0.248492 0.071701 -0.068472 153 0 76
-0.445552 0.689470 -0.175895 255 0 0
0.350134 -0.621440 -0.248654 0 127 127
0.496104 -0.291871 0.486444 76 0 153
-0.036655 0.463683 -0.499812 204 51 127
-0.535485 0.403392 -0.156839 153 0 76
-0.489637 -0.572459 0.448800 0 255 0
0.496104 0.408948 -0.125147 76 0 153
-0.569871 0.551592 -0.493181 153 0 76
-0.009285 -0.105995 0.546104 255 0 0
-0.263613 -0.372550 -0.511274 204 51 127
-0.252007 -0.273520 -0.511274 204 51 127
0.446293 0.071701 -0.251326 153 76 0
-0.541918 -0.696801 -0.027788 153 0 76
0.302987 0.367782 0.485905 153 0 76
0.034603 0.035559 -0.499812 204 51 127
-0.074842 -0.650953 -0.214674 0 0 255
0.450255 0.487379 0.327278 153 76 0
0.496104 0.518113 -0.248559 76 0 153
-0.569871 0.234049 0.409108 153 0 76
0.530490 -0.634892 0.276774 76 0 153
-0.569871 0.226111 0.262822 153 0 76
-0.301724 0.689470 -0.433601 255 0 0
-0.489637 0.078351 0.331114 76 0 153
-0.512115 0.194591 -0.453987 76 0 153
-0.361387 0.117689 0.546104 153 0 76
-0.535485 -0.228870 0.000233 153 0 76
-0.122499 -0.185576 0.508830 255 0 0
-0.185491 -0.650953 0.241219 0 0 255
-0.226776 -0.476619 -0.511274 0 255 0
0.473179 -0.187467 -0.422664 127 127 0
0.295118 -0.696801 -0.420009 0 0 255
-0.274882 -0.081696 0.511718 255 0 0
0.450255 -0.207116 -0.087384 127 127 0
0.496103 0.644807 0.233172 76 0 153
-0.569871 0.456533 -0.294406 153 0 76
0.401154 0.689470 -0.167924 255 0 0
-0.107982 -0.392566 -0.511274 204 51 127
-0.535485 -0.356974 0.188980 0 255 0
0.006018 0.643622 -0.513272 127 127 0
-0.273335 -0.609978 -0.302152 0 127 127
0.001619 -0.621440 0.133806 0 127 127
-0.273394 -0.591410 0.485905 255 0 0
0.450255 0.105826 0.388407 153 0 76
-0.535485 0.593314 0.179006 153 0 76
0.228848 -0.432054 -0.499812 204 51 127
0.473179 0.498968 0.144949 153 76 0
-0.271693 -0.313372 -0.453987 127 0 127
-0.263964 -0.528825 -0.499812 127 0 127
0.473179 0.431926 0.237940 153 76 0
0.273013 0.154474 0.485905 153 0 76
-0.272910 -0.609978 -0.174842 0 127 127
-0.363010 -0.650953 0.498491 0 0 255
0.426452 -0.696801 -0.421436 0 0 255
0.192848 -0.251661 0.546104 255 0 0
-0.417856 0.601623 -0.499812 204 51 127
-0.472239 0.104283 0.508830 153 0 76
-0.388602 -0.696801 0.122890 0 0 255
-0.425723 -0.082546 0.603213 0 0 255
-0.489637 0.329727 -0.137873 76 0 153
-0.132408 0.423430 -0.499812 127 127 0
0.178505 0.559470 0.485905 153 0 76
0.527625 0.013393 0.539566 153 0 76
0.069867 0.071701 -0.343231 153 0 76
-0.193801 -0.517089 -0.453987 127 0 127
0.530490 -0.571881 -0.063810 76 0 153
0.473179 0.115589 0.224785 76 0 153
-0.512561 0.400401 0.455400 76 0 153
-0.569871 0.387549 0.157910 153 0 76
0.496104 -0.525919 0.417450 76 0 153
0.496104 -0.564012 0.115309 76 153 0
-0.486606 0.689470 -0.471724 255 0 0
-0.512561 -0.348408 0.378633 0 255 0
0.073094 0.643622 -0.400092 255 0 0
0.473179 -0.393666 -0.214333 127 127 0
0.496104 -0.337023 0.118982 76 0 153
-0.512561 -0.559567 0.048109 0 255 0
0.438249 0.643622 0.119336 255 0 0
-0.569871 0.658739 -0.500980 153 0 76
-0.569871 0.100392 0.481688 153 0 76
-0.569871 0.136539 -0.353940 153 0 76
0.333435 0.083163 0.248528 153 0 76
0.330377 0.060239 0.500786 153 0 76
0.216685 -0.650953 0.230800 0 0 255
-0.075161 -0.021718 -0.511274 204 51 127
0.379120 0.689470 -0.455693 255 0 0
0.132486 0.184710 0.546104 153 0 76
0.277599 0.689470 0.226734 255 0 0
0.489378 0.086850 0.486092 76 0 153
-0.512561 0.489380 0.423738 153 0 76
0.121469 0.543673 -0.545661 127 127 0
0.530490 0.297933 -0.496383 76 0 153
-0.041474 -0.650953 -0.121945 0 0 255
-0.167087 -0.650953 0.436349 0 0 255
0.490234 0.689470 -0.353789 255 0 0
-0.407867 0.643622 0.161415 255 0 0
0.496104 -0.474283 -0.477802 76 0 153
0.200068 -0.609978 0.438340 0 127 127
0.248164 0.173688 -0.511274 204 51 127
-0.130961 -0.650953 0.032782 0 0 255
-0.135354 -0.650953 -0.280233 0 0 255
0.414617 0.435057 -0.453987 76 0 153
-0.327196 -0.029494 -0.511274 204 51 127
0.496104 -0.179206 0.285326 76 0 153
-0.512973 0.394292 -0.499812 204 51 127
-0.355980 -0.180147 -0.511274 204 51 127
-0.173453 -0.642070 -0.511274 0 0 255
0.239794 0.493248 -0.545661 127 127 0
0.077127 0.643622 -0.045868 255 0 0
-0.150690 0.058737 -0.499812 204 51 127
-0.553061 -0.501194 0.546104 255 0 0
-0.174790 -0.581400 -0.453987 127 0 127
-0.569871 0.090275 -0.042369 153 0 76
0.496104 -0.650657 0.136672 76 0 153
0.136592 0.689470 0.326439 255 0 0
-0.109143 0.643622 -0.476073 255 0 0
-0.338532 0.106925 -0.499812 204 51 127
0.414911 0.643622 -0.245819 255 0 0
0.134901 -0.609978 -0.413229 0 127 127
-0.207828 0.372536 -0.453987 76 0 153
-0.533182 -0.696801 0.243857 0 0 255
0.321598 0.071701 -0.397671 153 0 76
-0.535485 -0.166045 0.068888 153 0 76
0.530490 0.401061 -0.318277 76 0 153
0.321407 -0.459194 0.511718 255 0 0
-0.569871 0.302266 -0.185062 153 0 76
-0.535485 0.421259 -0.328865 153 0 76
-0.535485 0.270440 -0.065842 153 0 76
-0.569871 0.680874 0.143869 255 0 0
0.496104 -0.105811 0.093157 76 0 153
-0.535485 -0.604798 0.238999 153 0 76
0.292519 -0.696801 0.180046 0 0 255
0.496104 -0.687830 0.311346 76 0 153
0.371756 0.683749 0.522930 153 0 76
-0.489637 -0.463377 -0.057133 0 255 0
0.012716 -0.462241 -0.453987 127 0 127
0.393809 -0.032589 0.546104 255 0 0
-0.535485 0.641938 -0.149558 153 0 76
0.473179 -0.231531 0.480682 127 127 0
0.445769 -0.078607 -0.499812 204 51 127
-0.515381 0.140551 0.402740 76 0 153
-0.569871 -0.084049 0.039659 153 0 76
0.473180 0.155111 0.491686 153 0 76
0.315707 0.643622 -0.544669 255 0 0
0.463408 0.689470 -0.466792 255 0 0
-0.351369 -0.577354 -0.545661 0 255 0
-0.378252 0.060239 0.495412 153 0 76
-0.379489 0.071701 0.317580 153 0 76
0.278012 0.466971 0.546104 153 0 76
0.473179 -0.557455 -0.120849 127 127 0
0.037834 0.194471 -0.476911 76 0 153
0.360920 0.643622 -0.025578 255 0 0
0.450255 -0.519899 -0.205794 127 127 0
-0.106448 0.083163 0.140946 153 0 76
-0.482148 0.655361 -0.545661 255 0 0
-0.028794 -0.696801 0.104593 0 0 255
0.243663 -0.340986 -0.476911 127 0 127
0.496104 -0.015375 -0.152104 76 0 153
0.247398 0.689470 0.154220 255 0 0
-0.287949 -0.650953 -0.250939 0 0 255
-0.535485 0.616679 -0.217467 153 0 76
0.099670 -0.609978 0.455044 0 127 127
-0.223242 0.643622 -0.442219 255 0 0
0.292503 0.279165 -0.499812 204 51 127
-0.569871 -0.036520 0.296475 153 0 76
0.017679 -0.650953 0.502799 255 0 0
0.475698 -0.035830 0.511718 255 0 0
-0.071954 -0.564566 -0.511274 204 51 127
-0.277980 -0.154755 -0.511274 204 51 127
-0.041376 0.126204 -0.499812 204 51 127
-0.052276 -0.003660 0.517858 153 0 76
0.039906 -0.328950 -0.453987 127 0 127
0.484786 -0.650953 -0.011389 0 0 255
-0.031364 0.643622 -0.103787 255 0 0
0.530490 -0.353074 -0.243500 76 0 153
0.496104 -0.199772 0.087298 76 0 153
-0.497852 -0.330608 0.546104 255 0 0
-0.569871 0.011478 -0.055484 153 0 76
0.422512 -0.642733 0.546104 255 0 0
-0.195935 0.226085 -0.453987 76 0 153
0.102954 0.270384 0.546104 153 0 76
-0.062055 0.643622 -0.040877 255 0 0
-0.153989 0.133804 0.485905 153 0 76
-0.569871 -0.342920 -0.244128 153 0 76
0.387938 -0.650953 0.259994 0 0 255
0.127770 -0.104324 0.546104 255 0 0
0.228359 -0.583236 0.485905 255 0 0
0.391117 -0.696801 0.110132 0 0 255
-0.156041 -0.696801 -0.178233 0 0 255
-0.525818 -0.552590 -0.440005 153 0 76
0.318646 0.071701 0.037072 153 0 76
-0.513847 -0.650953 0.352736 0 255 0
-0.180704 0.689470 0.294397 255 0 0
0.496104 -0.124564 -0.346110 127 127 0
0.416014 0.689470 0.049693 255 0 0
0.102230 -0.236258 0.508830 255 0 0
0.496104 -0.411167 -0.489336 204 51 127
-0.535485 -0.506060 -0.334153 0 255 0
0.530490 0.648636 0.401315 76 0 153
-0.401185 -0.215931 -0.511274 204 51 127
0.525480 -0.039665 -0.545661 76 0 153
-0.461278 0.515525 -0.453987 76 0 153
0.473179 -0.246859 0.005117 127 127 0
0.334684 -0.609978 -0.350916 0 127 127
0.037425 -0.419342 -0.511274 204 51 127
0.378942 0.529198 -0.453987 76 0 153
-0.423465 0.041324 -0.511274 204 51 127
0.496104 0.522284 -0.159961 153 76 0
0.530490 -0.368815 -0.113905 76 0 153
0.412541 0.071701 0.309808 153 0 76
0.530490 0.639404 -0.274145 76 0 153
0.473179 0.316961 0.158702 153 76 0
0.364922 -0.696801 0.429187 0 0 255
0.530490 0.538442 -0.207259 76 0 153
0.473179 0.063949 -0.164601 153 76 0
0.265809 0.689470 0.408654 255 0 0
-0.433343 0.204518 -0.511274 204 51 127
-0.569871 0.223879 -0.374893 153 0 76
0.327982 0.071701 0.429668 153 0 76
0.530490 -0.051615 0.411022 76 0 153
0.024839 -0.650953 -0.193849 0 0 255
0.473179 0.275796 0.437184 153 76 0
-0.220943 0.689470 -0.181340 255 0 0
-0.444363 -0.609978 -0.192805 0 127 127
0.473179 -0.304315 -0.256562 127 127 0
0.473179 0.339228 0.255986 153 76 0
-0.569871 0.322946 -0.408207 153 0 76
0.010250 0.494448 0.546104 153 0 76
0.450255 -0.546953 0.249286 127 127 0
-0.435610 -0.609978 0.207164 0 127 127
-0.569871 -0.396758 0.155125 153 0 76
0.450255 0.302467 -0.393548 153 76 0
-0.569871 0.590671 0.336464 153 0 76
0.045256 -0.650953 0.366192 0 0 255
-0.010972 -0.650953 -0.358193 0 0 255
-0.284186 -0.401580 0.485905 255 0 0
0.273666 -0.388688 -0.453987 127 0 127
0.361362 -0.650953 0.336608 0 0 255
-0.569871 -0.211193 -0.179866 153 0 76
0.022854 -0.135384 -0.453987 127 0 127
0.081581 -0.370902 -0.511274 204 51 127
0.332825 -0.241878 -0.453987 127 0 127
0.496104 0.354316 -0.076679 76 0 153
-0.442726 -0.696801 0.334096 0 0 255
-0.569871 -0.242820 0.128872 153 0 76
-0.569871 -0.569041 0.085712 153 0 76
0.530490 -0.327284 -0.352692 76 0 153
0.151270 0.630035 -0.545661 127 127 0
-0.215341 -0.650953 -0.168323 0 0 255
0.109364 0.689470 -0.362954 255 0 0
-0.016029 0.689470 0.416854 255 0 0
0.496104 0.221791 -0.185471 76 0 153
-0.390068 0.662733 0.546104 153 0 76
-0.514611 -0.071883 0.546104 255 0 0
-0.123984 -0.650953 0.124700 0 0 255
0.255882 -0.632902 0.507490 255 0 0
0.496104 -0.576626 -0.254869 76 153 0
0.461720 -0.696801 0.474307 0 0 255
0.190452 -0.499515 -0.453987 127 0 127
-0.109878 0.334700 0.485905 153 0 76
0.530490 0.656235 -0.527707 76 0 153
0.211549 0.643622 -0.364023 255 0 0
0.473179 0.388198 -0.305145 153 76 0
0.063070 -0.650953 0.288987 0 0 255
-0.437964 -0.636198 0.511718 0 0 255
0.469444 0.564571 -0.357630 153 76 0
0.530490 0.428777 0.301398 76 0 153
0.067077 0.576644 0.511718 153 0 76
0.166614 -0.653147 -0.545661 0 255 0
0.178111 -0.650953 -0.237896 0 0 255
0.466611 -0.696801 -0.368414 0 0 255
0.293902 -0.552141 -0.476911 127 0 127
-0.429128 0.643622 -0.031830 255 0 0
0.118369 0.083163 0.044310 153 0 76
0.419432 0.689470 -0.338431 255 0 0
0.129293 -0.501236 -0.545661 0 255 0
0.530490 -0.401823 0.354967 76 0 153
0.093714 -0.650953 -0.040800 0 0 255
-0.535485 0.623562 0.428664 153 0 76
0.530490 -0.011421 0.487707 76 0 153
0.329050 -0.184577 0.485905 255 0 0
-0.145200 0.689470 -0.142186 255 0 0
-0.218605 0.643622 0.376878 255 0 0
0.393434 -0.650953 -0.153695 0 0 255
0.275972 -0.294123 0.485905 255 0 0
0.119755 0.638695 0.546104 153 0 76
-0.468140 -0.455177 -0.499812 0 255 0
-0.535485 0.024661 0.056841 153 0 76
0.473180 -0.356510 0.497370 255 0 0
-0.517947 -0.599523 -0.511274 0 255 0
-0.149194 -0.487631 -0.545661 0 255 0
-0.057945 0.643622 0.279693 255 0 0
0.495480 0.281380 0.511718 153 0 76
-0.535485 -0.131036 0.305325 153 0 76
-0.304993 -0.650953 -0.338268 0 0 255
0.092640 -0.696801 -0.249509 0 0 255
0.144139 0.478031 0.546104 153 0 76
-0.117609 0.071701 -0.183537 153 0 76
0.224897 0.083163 0.454100 153 0 76
-0.252530 0.294375 -0.511274 204 51 127
0.496104 0.194602 -0.426871 76 0 153
-0.239719 0.312844 0.485905 153 0 76
-0.280310 -0.291032 0.485905 255 0 0
-0.373627 0.689470 0.438044 255 0 0
-0.569871 0.217640 -0.177401 153 0 76
-0.535485 0.476776 0.174225 76 0 153
-0.090177 0.367317 -0.453987 76 0 153
-0.078631 0.290037 0.546104 153 0 76
0.053110 -0.663623 -0.545661 0 0 255
-0.189934 0.689470 0.461213 255 0 0
0.530490 0.535272 -0.526147 76 0 153
-0.535485 0.043360 0.326132 153 0 76
0.208427 0.643622 -0.087594 255 0 0
-0.374677 -0.650953 -0.319795 0 0 255
-0.376872 -0.316368 -0.499812 204 51 127
-0.535485 -0.534526 -0.081259 153 0 76
0.530490 -0.489094 -0.143483 76 0 153
-0.201244 0.083163 -0.376858 153 0 76
0.496104 -0.491970 -0.368783 76 0 153
-0.569871 -0.295936 -0.381090 153 0 76
-0.489637 -0.436164 -0.388719 0 255 0
-0.107927 -0.650953 -0.142824 0 0 255
-0.188980 0.643622 -0.324404 255 0 0
0.007003 0.689470 0.200861 255 0 0
0.496104 -0.367226 -0.300865 76 0 153
-0.326616 0.643622 -0.222933 255 0 0
-0.269467 0.139292 0.546104 153 0 76
0.441845 -0.650953 0.191377 127 127 0
-0.569871 -0.431343 -0.426688 153 0 76
0.477732 0.643622 -0.384228 255 0 0
-0.080515 0.689470 0.226128 255 0 0
-0.569871 -0.653166 -0.236387 153 0 76
0.437756 -0.609978 -0.195411 127 127 0
0.169720 -0.650953 0.163304 0 0 255
-0.001687 0.083163 0.397599 153 0 76
0.450255 -0.570264 -0.013025 127 127 0
0.331904 0.088934 -0.511274 204 51 127
0.128562 0.321163 0.485905 153 0 76
-0.090129 0.470539 0.485905 153 0 76
0.112626 0.643622 0.411850 255 0 0
-0.326387 -0.650953 -0.480915 0 0 255
0.342461 0.251029 0.485905 153 0 76
0.252089 0.689470 -0.211876 255 0 0
-0.230848 0.242046 0.546104 153 0 76
0.422092 -0.137988 0.546104 255 0 0
-0.535485 -0.529091 0.279341 153 0 76
0.496104 0.063025 -0.529002 76 0 153
-0.065767 -0.650953 -0.274294 0 0 255
-0.489637 0.418156 -0.254219 76 0 153
-0.496183 -0.696801 -0.459295 0 0 255
0.496104 -0.578746 0.220602 127 127 0
-0.437968 -0.650953 -0.288054 0 0 255
0.296852 0.083163 -0.336005 153 0 76
0.343209 0.194775 0.546104 153 0 76
0.375048 -0.069196 -0.499812 204 51 127
0.083349 -0.696801 0.126701 0 0 255
0.496103 0.688276 -0.189897 255 0 0
-0.405406 0.639121 -0.545661 255 0 0
-0.155387 -0.632902 0.491647 255 0 0
0.244071 0.615846 -0.545661 127 127 0
-0.509892 0.643622 0.249513 255 0 0
0.450255 -0.185481 0.353659 127 127 0
0.069114 -0.562160 -0.511274 0 255 0
0.111753 0.689470 -0.031341 255 0 0
-0.335294 0.689470 0.184764 255 0 0
0.280238 0.498652 -0.453987 76 0 153
-0.569871 -0.446949 0.303830 153 0 76
0.049814 0.689470 0.339825 255 0 0
0.496104 0.455438 -0.045352 76 0 153
-0.060021 -0.650953 0.160699 0 0 255
0.340874 0.331716 -0.453987 76 0 153
-0.543039 0.001483 0.546104 153 0 76
0.197975 0.689470 -0.436072 255 0 0
0.065530 0.092728 0.485905 153 0 76
0.112227 0.687859 -0.545661 255 0 0
0.487507 -0.586469 0.387462 76 153 0
-0.535485 -0.390364 -0.171520 153 0 76
-0.535485 0.285688 0.138734 153 0 76
-0.405564 -0.588438 -0.453987 127 0 127
0.014199 0.643622 -0.404307 255 0 0
0.525933 -0.611988 -0.545661 76 0 153
-0.174398 -0.650953 -0.017155 0 0 255
-0.396379 0.689470 -0.377050 255 0 0
-0.454305 0.455814 0.508830 153 0 76
-0.230597 0.689470 -0.035524 255 0 0
0.247274 0.689470 -0.090684 255 0 0
0.250739 0.563945 -0.511274 204 51 127
0.014115 0.071701 0.025025 153 0 76
-0.116064 -0.261964 -0.453987 127 0 127
-0.288511 0.689470 -0.327110 255 0 0
-0.569871 0.623605 0.074051 153 0 76
-0.418011 -0.356747 -0.511274 204 51 127
0.496104 0.427474 0.113715 76 0 153
0.161332 0.689470 -0.149566 255 0 0
-0.128578 0.083163 0.425655 153 0 76
-0.319519 -0.249320 -0.476911 127 0 127
0.266958 0.083163 0.252636 153 0 76
0.060761 0.689470 -0.322352 255 0 0
-0.150934 0.689470 -0.504545 255 0 0
-0.144347 0.643622 -0.426412 255 0 0
-0.387659 -0.696801 0.394049 0 0 255
-0.474912 -0.696801 0.226138 0 0 255
0.034116 0.643622 -0.348753 255 0 0
0.496104 0.225358 -0.527881 204 51 127
0.475916 -0.650953 -0.279769 0 0 255
0.530490 0.687549 0.155425 76 0 153
0.469759 -0.519372 -0.511274 204 51 127
-0.382025 0.331527 -0.511274 204 51 127
0.496104 -0.040143 0.253528 76 0 153
0.001207 -0.650953 0.078175 0 0 255
-0.104519 0.133769 0.546104 153 0 76
-0.569871 -0.087491 0.198092 153 0 76
-0.255249 -0.650953 0.232736 0 0 255
-0.124588 -0.650953 0.252328 0 0 255
0.496104 -0.212684 -0.321200 76 0 153
-0.346921 -0.487197 0.485905 255 0 0
-0.512561 -0.379007 0.288801 0 255 0
-0.512561 0.204205 0.194383 76 0 153
-0.535485 0.190166 0.417939 153 0 76
-0.452428 0.083163 0.027848 153 0 76
-0.490297 0.563283 -0.511274 127 127 0
0.058075 0.689470 -0.140931 255 0 0
0.496104 0.097857 0.355000 76 0 153
-0.489637 -0.602218 -0.343736 0 255 0
0.475079 0.643622 -0.276163 255 0 0
-0.569871 0.538006 -0.386781 153 0 76
-0.319612 -0.696801 0.097764 0 0 255
-0.108905 -0.597033 0.511718 255 0 0
-0.402339 0.410134 0.546104 153 0 76
0.018676 -0.696801 0.457093 0 0 255
-0.470339 -0.696801 0.486788 0 0 255
-0.489637 0.234791 -0.127161 76 0 153
0.338832 0.643622 0.034345 255 0 0
0.168041 -0.609978 0.342149 0 127 127
0.530490 0.360873 0.441290 76 0 153
-0.008606 -0.650953 -0.037202 0 0 255
0.224445 -0.650953 -0.505802 0 0 255
0.053071 0.083163 -0.069433 153 0 76
0.110571 -0.178045 -0.499812 204 51 127
0.094917 0.083163 -0.161395 153 0 76
0.530490 -0.587314 0.340932 76 0 153
-0.512561 -0.487156 -0.416684 0 255 0
0.337960 -0.621440 -0.148729 0 127 127
