ply
format ascii 1.0
element vertex 1244
property float x
property float y
property float z
property uchar red
property uchar green
property uchar blue
end_header
0.379696 -0.847071 0.290126 127 0 127
-0.219551 0.719717 0.162390 0 127 127
0.399278 0.245707 0.390593 127 127 0
0.565745 0.370284 -0.406238 127 127 0
0.544924 0.688463 -0.401514 0 127 127
0.189662 0.654821 -0.468710 127 127 0
-0.086347 0.724134 -0.469908 0 127 127
0.622078 0.331835 0.053211 127 127 0
-0.179393 -0.101532 0.474268 127 127 0
-0.291601 0.719717 -0.130698 0 127 127
0.531820 0.735777 0.108408 0 127 127
0.683632 0.678963 0.072065 0 127 127
0.429852 -0.047234 -0.365512 127 127 0
0.382641 0.248723 -0.462311 127 127 0
0.575190 0.367567 0.267730 127 127 0
0.385008 0.592912 -0.420948 127 127 0
0.029053 0.363498 -0.501230 127 127 0
-0.363902 -0.323487 0.358726 127 127 0
-0.269767 -0.692216 0.339191 127 127 0
-0.085418 0.735777 0.168667 0 127 127
0.326433 -0.512411 -0.355222 127 127 0
0.346658 0.718439 0.367932 0 127 127
-0.609745 0.700551 0.268107 0 127 127
-0.345952 0.635023 -0.473381 127 127 0
0.574406 -0.014269 -0.377364 127 127 0
-0.615689 -0.560056 -0.124872 127 127 0
0.155016 0.541407 -0.498491 127 127 0
-0.242656 0.497380 0.486765 127 127 0
-0.592060 -0.673407 -0.140974 127 127 0
0.233584 -0.847141 -0.061893 127 0 127
0.519548 -0.455311 -0.202018 127 127 0
0.345223 -0.847141 0.074097 127 0 127
0.616643 -0.589202 -0.001312 127 127 0
0.431632 -0.270449 -0.346911 127 127 0
-0.572786 -0.496205 0.300870 127 127 0
0.257405 -0.012969 0.398030 127 127 0
0.418606 0.719717 -0.018274 0 127 127
-0.689638 0.258097 -0.057437 127 127 0
-0.403117 0.576861 -0.416787 127 127 0
0.533843 -0.525605 -0.120153 127 127 0
-0.445582 0.474051 -0.400538 127 127 0
-0.676967 -0.034919 -0.007626 127 127 0
-0.551020 -0.281298 0.162501 127 127 0
-0.662740 0.238056 -0.210551 127 127 0
-0.538526 0.100055 -0.415555 127 127 0
-0.224049 -0.303988 -0.386531 127 127 0
0.302177 -0.814088 0.374027 127 127 0
-0.510328 -0.843057 -0.090041 127 0 127
0.126083 0.108774 -0.422533 127 127 0
0.302635 -0.462962 -0.437862 127 127 0
-0.602263 -0.207582 -0.307609 127 127 0
-0.132293 -0.122066 0.404321 127 127 0
0.525291 -0.570097 -0.142665 127 127 0
-0.659526 0.194658 -0.215754 127 127 0
0.305646 -0.717277 0.014497 127 0 127
0.541927 -0.321022 0.165889 127 127 0
0.430421 0.735777 -0.046738 0 127 127
-0.107047 -0.717233 0.312617 127 0 127
-0.401396 -0.440762 -0.422728 127 127 0
-0.071313 0.677187 0.493428 0 127 127
-0.605311 0.360052 -0.367014 127 127 0
0.118686 0.719717 -0.173610 0 127 127
0.640477 -0.122340 0.197112 127 127 0
0.007044 -0.502229 0.384484 127 127 0
0.206480 -0.443454 -0.452035 127 127 0
0.552134 0.712779 0.307416 0 127 127
0.585788 -0.027359 0.081632 127 127 0
-0.148955 0.236321 0.426707 127 127 0
0.283763 0.719717 -0.168051 0 127 127
-0.655514 -0.242716 -0.097868 127 127 0
-0.156409 -0.072284 -0.409022 127 127 0
-0.646696 -0.398813 -0.015786 127 127 0
0.596884 0.335742 0.194435 127 127 0
-0.564940 -0.116768 -0.173907 127 127 0
-0.670675 -0.126536 0.011596 127 127 0
0.305108 -0.847141 -0.220087 127 0 127
-0.231862 -0.846713 0.330276 127 0 127
-0.062392 -0.401943 -0.393434 127 127 0
-0.554900 0.550950 0.417384 127 127 0
-0.291555 -0.717067 0.116174 127 0 127
-0.204450 -0.196459 -0.396722 127 127 0
0.544298 -0.285850 0.169482 127 127 0
0.048839 0.179901 0.427683 127 127 0
0.572951 0.718805 0.153057 0 127 127
0.013554 -0.585754 -0.382179 127 127 0
-0.695188 0.590748 0.088843 127 127 0
-0.556066 0.648824 0.407617 127 127 0
0.301766 -0.180023 0.454737 127 127 0
0.087283 0.705488 0.447245 0 127 127
0.148086 -0.847141 0.007616 127 0 127
0.451243 0.675810 -0.448421 0 127 127
0.109089 -0.242646 0.471041 127 127 0
-0.382023 -0.431451 0.346681 127 127 0
-0.178347 -0.836181 -0.376184 127 127 0
0.522821 0.735777 0.231667 0 127 127
-0.135047 -0.491177 0.380123 127 127 0
0.140594 -0.775311 0.407083 127 127 0
-0.460507 0.735777 0.156868 0 127 127
-0.594890 0.108716 -0.135800 127 127 0
-0.679425 0.545332 -0.178605 127 127 0
0.243576 -0.340506 -0.455752 127 127 0
0.106199 0.587788 -0.454963 127 127 0
-0.175166 0.361404 0.490908 127 127 0
-0.336309 0.659676 -0.480025 0 127 127
-0.682388 0.096314 -0.057798 127 127 0
-0.168647 0.735777 0.012553 0 127 127
0.048763 0.735777 -0.199853 0 127 127
-0.125715 0.735777 0.000870 0 127 127
0.346890 0.269505 0.466242 127 127 0
0.411925 0.725476 0.421730 0 127 127
0.684468 0.282172 0.071197 127 127 0
0.548319 0.731236 0.339964 0 127 127
0.519771 0.730691 -0.370194 0 127 127
0.228804 0.735777 0.149520 0 127 127
0.264715 0.514880 -0.486946 127 127 0
0.297017 0.735556 0.373014 0 127 127
0.076431 0.719717 -0.166937 0 127 127
-0.689515 0.211355 0.021380 127 127 0
-0.053928 0.602855 0.501165 127 127 0
0.544928 -0.022287 -0.248909 127 127 0
0.663921 0.681568 -0.323842 0 127 127
-0.530457 -0.625846 0.342272 127 127 0
-0.133257 0.735777 -0.176347 0 127 127
0.671873 0.035492 -0.087323 127 127 0
-0.286145 0.205900 -0.477770 127 127 0
0.349217 -0.113745 0.450769 127 127 0
-0.087614 -0.472939 -0.387385 127 127 0
-0.415822 0.735777 -0.227298 0 127 127
-0.295819 0.719717 0.324262 0 127 127
-0.090486 -0.358778 0.391722 127 127 0
0.646500 -0.278024 0.104915 127 127 0
0.629003 0.602811 0.169180 127 127 0
0.087404 0.525629 0.448547 127 127 0
0.200686 -0.050747 0.402380 127 127 0
-0.598022 -0.594378 -0.184079 127 127 0
-0.158818 0.701212 -0.512923 0 127 127
-0.564029 0.362228 -0.306688 127 127 0
0.625416 0.710270 -0.079314 0 127 127
0.509893 -0.527829 0.376308 127 127 0
0.081299 0.676221 -0.539101 0 127 127
-0.635985 0.530820 0.123743 127 127 0
-0.165690 0.561070 -0.498328 127 127 0
-0.475768 0.735777 -0.084487 0 127 127
-0.647396 0.085823 0.234623 127 127 0
0.543787 0.719717 0.063098 0 127 127
0.078038 -0.683613 0.367373 127 127 0
-0.639848 -0.216563 -0.192811 127 127 0
-0.581079 0.225335 0.225509 127 127 0
0.285147 -0.540659 0.429376 127 127 0
0.632020 0.530900 0.309302 127 127 0
0.123454 -0.301010 0.466265 127 127 0
-0.290502 0.711500 -0.413521 0 127 127
0.051100 -0.533410 0.450293 127 127 0
-0.267398 -0.847141 -0.145442 127 0 127
-0.618213 0.157206 0.323128 127 127 0
-0.076496 0.178634 -0.430392 127 127 0
0.044799 0.254716 0.494835 127 127 0
-0.071266 -0.662463 0.433814 127 127 0
0.043767 0.717740 0.403221 0 127 127
-0.335056 -0.717067 -0.078775 127 0 127
-0.620244 0.469302 -0.173314 127 127 0
-0.402531 -0.771019 0.370963 127 127 0
-0.139728 -0.088813 0.405919 127 127 0
-0.068520 0.699379 0.516994 0 127 127
0.654496 0.659211 0.294468 0 127 127
-0.058120 0.719717 -0.042761 0 127 127
-0.394331 -0.717067 0.122496 127 0 127
0.127300 -0.717713 -0.120015 127 0 127
-0.140392 0.320854 0.492384 127 127 0
0.163304 0.735777 0.071635 0 127 127
-0.532374 0.719717 -0.111549 0 127 127
-0.465114 0.117210 0.438289 127 127 0
-0.568249 0.706385 0.418058 0 127 127
0.676988 0.595568 0.169768 127 127 0
0.614660 0.442089 -0.346676 127 127 0
0.432411 0.258448 0.383554 127 127 0
0.398995 -0.598872 -0.332595 127 127 0
-0.653620 0.613369 0.267570 127 127 0
-0.287048 -0.631208 0.351960 127 127 0
-0.154230 -0.717067 -0.165717 127 0 127
0.519947 0.277046 -0.429188 127 127 0
-0.281039 -0.307620 -0.378160 127 127 0
-0.074281 0.719717 -0.171002 0 127 127
-0.059679 -0.301311 -0.399640 127 127 0
-0.504095 -0.387263 -0.270521 127 127 0
-0.202477 0.735777 -0.369245 0 127 127
0.435151 0.650918 -0.444519 127 127 0
-0.552934 -0.321971 0.138722 127 127 0
0.137750 0.049082 0.414700 127 127 0
0.362003 0.508448 0.468683 127 127 0
-0.366544 0.713000 -0.467172 0 127 127
-0.624457 0.304714 0.043530 127 127 0
0.710932 0.659211 0.013135 0 127 127
-0.604036 -0.459949 -0.232465 127 127 0
-0.540602 0.288679 -0.330525 127 127 0
0.224750 -0.847141 -0.295693 127 0 127
-0.180231 -0.518292 -0.377323 127 127 0
0.598791 0.732390 -0.199052 0 127 127
-0.561580 0.735777 -0.004491 0 127 127
-0.568069 -0.324630 -0.008555 127 127 0
-0.281123 -0.609200 -0.425884 127 127 0
0.640192 -0.415368 0.022428 127 127 0
0.259635 -0.847141 0.281908 127 0 127
0.672468 0.008264 -0.065518 127 127 0
-0.338129 0.719717 -0.001771 0 127 127
0.558435 -0.083390 -0.192585 127 127 0
0.480316 0.521442 -0.446924 127 127 0
-0.539219 0.727289 -0.379143 0 127 127
0.389869 0.245619 0.457754 127 127 0
-0.092531 -0.846775 0.335984 127 0 127
0.473307 -0.085891 0.339421 127 127 0
0.493861 0.735777 0.116576 0 127 127
-0.049902 -0.847141 0.117139 127 0 127
0.457480 0.731388 -0.387775 0 127 127
-0.731038 0.684375 -0.025660 0 127 127
0.032568 -0.475166 0.386012 127 127 0
0.177914 0.719717 0.276807 0 127 127
0.666989 0.689392 0.105794 0 127 127
0.177452 -0.107627 -0.476840 127 127 0
0.447086 -0.077779 0.353879 127 127 0
-0.698225 0.475248 0.007226 127 127 0
-0.234057 0.719717 0.274440 0 127 127
-0.229181 -0.847141 -0.132927 127 0 127
-0.491334 -0.841516 -0.203499 127 0 127
0.642151 0.559447 -0.287702 127 127 0
0.153477 0.735777 0.313374 0 127 127
0.560918 -0.281214 0.362482 127 127 0
-0.626236 0.713613 0.319073 0 127 127
-0.489493 -0.510819 -0.273398 127 127 0
-0.385685 -0.706614 0.301937 127 0 127
0.581992 -0.071375 0.077001 127 127 0
0.303159 0.719717 0.259549 0 127 127
0.576247 -0.124813 0.083502 127 127 0
-0.071315 0.735777 0.021606 0 127 127
0.356236 0.732723 0.397196 0 127 127
-0.612289 0.635923 -0.261670 127 127 0
0.559268 -0.335253 -0.070488 127 127 0
-0.206036 0.275074 0.486078 127 127 0
0.100603 -0.847141 -0.106740 127 0 127
0.046366 0.726781 -0.461513 0 127 127
0.129807 -0.272083 -0.397754 127 127 0
-0.048246 0.220110 0.493682 127 127 0
0.648808 0.689788 0.339519 0 127 127
0.002047 0.366797 0.498202 127 127 0
-0.561099 -0.396773 -0.037620 127 127 0
0.178627 0.018050 -0.482562 127 127 0
0.575920 -0.561775 0.256723 127 127 0
-0.098306 -0.349229 0.464810 127 127 0
-0.206772 0.681334 0.524597 0 127 127
0.376025 -0.077282 0.447707 127 127 0
0.345535 -0.717259 0.013414 127 0 127
-0.579402 0.735645 0.123820 0 127 127
0.146448 0.254583 -0.493360 127 127 0
-0.175874 -0.520642 0.445088 127 127 0
0.331022 0.659211 0.495525 0 127 127
-0.603112 0.408818 -0.215394 127 127 0
0.332613 0.290742 0.406394 127 127 0
-0.401613 -0.596771 -0.406269 127 127 0
-0.541984 -0.429640 -0.371980 127 127 0
-0.167963 0.192498 0.487166 127 127 0
-0.024944 -0.717169 -0.269718 127 0 127
-0.149223 -0.508315 -0.451548 127 127 0
-0.565940 0.735777 0.054347 0 127 127
-0.469847 -0.753887 -0.361393 127 127 0
-0.502578 0.461127 -0.441080 127 127 0
-0.266447 -0.435962 -0.446104 127 127 0
-0.684759 0.629385 0.146994 127 127 0
0.425095 0.735777 0.114118 0 127 127
-0.454468 0.719717 0.028556 0 127 127
0.389599 0.719717 0.332996 0 127 127
-0.538471 0.719717 0.191916 0 127 127
0.395106 0.181902 -0.457714 127 127 0
0.598886 0.534344 -0.251511 127 127 0
0.063532 -0.212800 0.401936 127 127 0
-0.554266 0.044830 0.399964 127 127 0
-0.647021 -0.378275 -0.055764 127 127 0
0.131969 0.712960 -0.495098 0 127 127
-0.668558 0.243047 0.185256 127 127 0
-0.608889 -0.614713 0.106322 127 127 0
-0.608093 0.672413 -0.368751 0 127 127
-0.606919 -0.492292 0.205346 127 127 0
-0.650751 -0.188570 -0.154141 127 127 0
-0.653729 0.725925 0.107319 0 127 127
0.234897 -0.206515 0.388070 127 127 0
-0.213861 -0.570242 -0.439056 127 127 0
0.363981 0.264565 -0.402204 127 127 0
-0.667917 0.659211 0.272506 0 127 127
-0.576625 0.211353 -0.238062 127 127 0
-0.030193 0.023555 0.418168 127 127 0
0.637145 0.481293 0.004894 127 127 0
-0.149029 0.735777 -0.302039 0 127 127
0.310502 -0.392098 -0.442600 127 127 0
0.243032 -0.601133 -0.364560 127 127 0
-0.609904 0.240661 -0.118475 127 127 0
0.634793 0.498218 -0.076708 127 127 0
-0.406937 -0.155079 0.438460 127 127 0
0.025270 0.735777 -0.376439 0 127 127
-0.553639 -0.368956 -0.117665 127 127 0
0.665005 0.627934 -0.219594 127 127 0
-0.705193 0.659211 -0.026448 0 127 127
-0.253965 -0.374513 -0.377633 127 127 0
0.263404 0.735777 0.058752 0 127 127
0.130918 -0.449931 0.454742 127 127 0
-0.549406 -0.431281 -0.107653 127 127 0
-0.566597 0.336547 0.404482 127 127 0
0.473588 -0.621126 0.269201 127 127 0
0.584699 0.730554 -0.274710 0 127 127
-0.524576 -0.715158 -0.318445 127 127 0
0.241277 0.719717 -0.069348 0 127 127
-0.455637 -0.661830 -0.384204 127 127 0
0.570629 -0.112776 -0.373153 127 127 0
0.376049 0.678321 0.502135 0 127 127
0.351992 0.572953 -0.426106 127 127 0
-0.512898 0.042824 -0.328245 127 127 0
-0.294381 -0.847063 -0.299581 127 0 127
0.621413 -0.558905 0.011742 127 127 0
0.115634 -0.689521 0.363189 127 127 0
0.257122 -0.847141 0.139932 127 0 127
-0.600016 0.704340 -0.399122 0 127 127
0.470010 0.731596 0.380700 0 127 127
0.486069 -0.659920 -0.236739 127 127 0
0.349972 -0.847141 -0.125209 127 0 127
-0.109468 -0.844938 -0.359854 127 127 0
0.281496 -0.566826 -0.360600 127 127 0
-0.370568 -0.378482 -0.356789 127 127 0
-0.430064 -0.415746 0.334454 127 127 0
-0.266383 0.189492 0.410787 127 127 0
0.307076 0.735777 -0.241583 0 127 127
-0.508351 -0.269558 0.281958 127 127 0
0.369553 0.719717 -0.121277 0 127 127
-0.316101 0.022533 0.463501 127 127 0
0.132513 0.735777 0.274548 0 127 127
0.283488 -0.610810 -0.356580 127 127 0
0.259402 -0.717413 -0.139764 127 0 127
-0.629431 -0.131443 0.248099 127 127 0
-0.500822 0.735777 0.050895 0 127 127
0.694555 0.554280 -0.035993 127 127 0
-0.392035 -0.269120 -0.437704 127 127 0
0.279299 -0.372782 0.445561 127 127 0
-0.016731 -0.711369 0.426513 127 127 0
0.261227 0.719717 0.343937 0 127 127
-0.030181 0.314080 -0.440290 127 127 0
0.651792 0.117792 0.210497 127 127 0
0.404451 -0.717259 0.220454 127 0 127
-0.558833 0.712128 -0.415430 0 127 127
-0.210929 0.476007 0.489792 127 127 0
0.442120 0.486693 -0.455446 127 127 0
-0.220888 0.719717 0.211077 0 127 127
0.419044 0.719717 0.061846 0 127 127
-0.214613 -0.847141 0.016182 127 0 127
0.526755 0.522034 -0.370737 127 127 0
0.156063 0.417248 0.437283 127 127 0
0.043951 0.595920 -0.457794 127 127 0
0.032963 0.672666 0.538476 0 127 127
-0.666358 0.142903 -0.179251 127 127 0
0.110993 0.679886 0.488569 0 127 127
0.240205 0.541014 -0.490265 127 127 0
-0.451600 0.659211 0.457618 0 127 127
0.302717 -0.847141 0.122449 127 0 127
-0.658779 0.595481 -0.255595 127 127 0
0.108528 -0.847141 -0.033040 127 0 127
-0.073331 0.668345 -0.542276 0 127 127
-0.592085 -0.049588 -0.051042 127 127 0
0.048952 -0.343815 -0.469907 127 127 0
0.598096 0.596693 -0.270003 127 127 0
0.032548 -0.847141 -0.153272 127 0 127
-0.684039 0.452266 -0.146633 127 127 0
-0.488703 -0.359366 -0.408337 127 127 0
-0.540996 0.166611 0.306805 127 127 0
-0.360132 0.442521 0.468888 127 127 0
0.518971 -0.417746 0.384698 127 127 0
-0.602526 -0.459887 0.233628 127 127 0
0.075342 0.735777 -0.203828 0 127 127
-0.188745 -0.451629 -0.380782 127 127 0
0.062893 -0.717067 0.169137 127 0 127
0.128407 -0.166327 -0.404516 127 127 0
0.365030 0.733702 -0.391106 0 127 127
-0.615760 0.734166 0.051244 0 127 127
-0.162252 0.719717 -0.067930 0 127 127
0.036592 0.719717 -0.151796 0 127 127
0.628432 0.384913 -0.007735 127 127 0
0.053087 0.712127 -0.500421 0 127 127
-0.608983 -0.408110 -0.236013 127 127 0
-0.524354 -0.542033 -0.173957 127 127 0
0.185847 -0.405403 -0.384001 127 127 0
0.154959 0.735777 0.187692 0 127 127
-0.050746 -0.366644 -0.396008 127 127 0
-0.178658 0.733964 0.412343 0 127 127
-0.181921 0.525445 -0.445646 127 127 0
0.648471 0.247488 0.241348 127 127 0
0.255722 0.735777 -0.151212 0 127 127
-0.328615 -0.319046 0.442586 127 127 0
0.480271 0.000929 -0.346541 127 127 0
0.427234 -0.489240 -0.331176 127 127 0
-0.231197 0.735777 -0.039294 0 127 127
0.492907 0.629735 0.440509 127 127 0
-0.266165 0.719717 -0.265817 0 127 127
-0.003377 -0.479402 -0.389114 127 127 0
0.661230 0.651056 0.007264 127 127 0
0.439327 -0.847141 -0.084178 127 0 127
-0.289117 0.735559 -0.377795 0 127 127
0.589550 -0.652348 -0.152746 127 127 0
-0.045958 0.342840 0.438364 127 127 0
0.596320 0.114712 0.354651 127 127 0
-0.623024 0.346780 -0.099605 127 127 0
0.206196 -0.590472 0.366082 127 127 0
-0.624570 -0.568377 0.020455 127 127 0
-0.716122 0.659211 0.121991 0 127 127
-0.563985 -0.350796 -0.053027 127 127 0
-0.077815 0.099972 -0.492292 127 127 0
0.005357 -0.177919 0.477695 127 127 0
0.082095 0.735777 -0.147594 0 127 127
0.520834 0.614049 0.432101 127 127 0
-0.567887 -0.486101 -0.319341 127 127 0
-0.097337 -0.025535 -0.415880 127 127 0
-0.717300 0.694482 0.088415 0 127 127
-0.662948 0.724947 -0.056688 0 127 127
-0.278146 0.719717 0.233104 0 127 127
-0.473693 0.735777 0.211447 0 127 127
0.486221 -0.846658 0.033599 127 0 127
-0.212735 -0.012736 0.404021 127 127 0
0.426813 0.735777 -0.241114 0 127 127
-0.339243 -0.717067 -0.158205 127 0 127
0.569316 0.703198 -0.340520 0 127 127
0.444590 0.213969 0.445394 127 127 0
-0.327487 0.027621 0.390261 127 127 0
0.572099 -0.177189 -0.081864 127 127 0
0.204691 0.659211 -0.504917 0 127 127
-0.110233 -0.717067 -0.048990 127 0 127
-0.208757 -0.307224 -0.462479 127 127 0
0.407788 0.111891 -0.381865 127 127 0
0.640269 0.703758 0.104787 0 127 127
-0.032009 0.735777 0.261483 0 127 127
0.150052 0.061311 -0.486642 127 127 0
0.245084 0.168030 0.411519 127 127 0
-0.043604 0.719717 0.118533 0 127 127
-0.104566 0.719717 0.141036 0 127 127
0.148780 0.301059 -0.433753 127 127 0
0.672872 0.659211 -0.253901 0 127 127
0.041366 0.340891 0.438241 127 127 0
0.142458 0.686042 0.479583 0 127 127
-0.511263 -0.785530 -0.295106 127 127 0
0.527748 -0.514080 -0.154131 127 127 0
0.150529 0.398768 0.493047 127 127 0
-0.220492 -0.717067 0.102006 127 0 127
0.379471 0.719693 -0.349945 0 127 127
0.105430 0.719717 0.286199 0 127 127
0.202359 0.447944 0.489684 127 127 0
0.684910 0.682730 -0.265179 0 127 127
0.170737 -0.717732 -0.226862 127 0 127
-0.618500 0.244625 0.046451 127 127 0
-0.321983 0.568536 0.477033 127 127 0
-0.161099 0.703956 -0.450020 0 127 127
0.157031 0.118058 -0.420766 127 127 0
-0.341441 -0.452771 -0.433079 127 127 0
-0.679896 0.018373 -0.025086 127 127 0
0.090745 0.116096 0.489074 127 127 0
0.089881 0.009387 0.484800 127 127 0
0.160482 -0.325928 0.388459 127 127 0
-0.480053 0.735777 0.118297 0 127 127
0.246972 0.520579 0.486101 127 127 0
0.426272 -0.494350 -0.411616 127 127 0
-0.209654 0.043258 -0.411177 127 127 0
0.002720 -0.373554 -0.396100 127 127 0
0.321126 0.732320 0.406750 0 127 127
-0.405625 -0.717067 -0.030694 127 0 127
0.669472 0.667152 -0.205396 0 127 127
-0.209152 -0.499777 -0.447091 127 127 0
-0.663980 0.693946 0.305194 0 127 127
-0.686119 0.508239 -0.141728 127 127 0
-0.154272 -0.232702 -0.472152 127 127 0
0.424209 0.548015 -0.460301 127 127 0
-0.591299 0.700417 -0.316662 0 127 127
-0.621063 0.024811 -0.302842 127 127 0
-0.222410 -0.238333 -0.465547 127 127 0
-0.539391 -0.610854 0.052794 127 127 0
-0.612792 -0.447088 0.204846 127 127 0
0.620469 0.547724 -0.185311 127 127 0
-0.027049 0.164791 -0.430762 127 127 0
-0.636621 0.103419 -0.273312 127 127 0
-0.301809 -0.464154 -0.438597 127 127 0
0.575820 0.004531 0.152616 127 127 0
-0.605295 0.114161 -0.064877 127 127 0
-0.349027 0.204468 -0.467981 127 127 0
0.026719 0.659211 -0.526095 0 127 127
0.464844 -0.846443 0.163740 127 0 127
0.631599 0.710701 -0.314072 0 127 127
0.228234 0.706139 0.434441 0 127 127
-0.096749 -0.564516 -0.448768 127 127 0
-0.585397 -0.066478 0.089412 127 127 0
0.624133 0.367786 0.067165 127 127 0
0.629893 -0.211197 -0.214039 127 127 0
0.223624 -0.469620 0.444655 127 127 0
0.093796 0.251861 -0.496208 127 127 0
0.089223 0.216966 0.428577 127 127 0
-0.098586 0.735777 0.025119 0 127 127
0.203101 0.709021 0.428741 0 127 127
-0.540114 0.735777 0.053975 0 127 127
-0.384019 0.663929 0.506522 0 127 127
0.644805 -0.022022 0.205870 127 127 0
0.112412 -0.065192 0.409007 127 127 0
-0.587792 0.707135 0.401549 0 127 127
0.428475 0.358822 -0.395224 127 127 0
0.386956 -0.847142 -0.289851 127 0 127
-0.450496 -0.847141 -0.137696 127 0 127
0.587894 0.195114 0.179280 127 127 0
0.682851 0.701433 -0.207036 0 127 127
-0.154771 0.719717 0.351468 0 127 127
-0.612331 0.502281 0.211080 127 127 0
0.253529 -0.496471 0.438455 127 127 0
-0.216197 0.543615 -0.493382 127 127 0
0.075110 -0.391683 0.462111 127 127 0
0.054086 -0.683210 -0.434115 127 127 0
-0.670569 -0.117955 0.036403 127 127 0
0.665839 -0.033652 -0.103292 127 127 0
-0.287115 0.086168 -0.403962 127 127 0
-0.654023 0.659211 0.336435 0 127 127
0.629509 0.706556 -0.129317 0 127 127
0.405578 0.376068 -0.401490 127 127 0
0.542865 -0.565526 0.331429 127 127 0
-0.606848 -0.434557 -0.233268 127 127 0
-0.646073 0.208405 -0.260370 127 127 0
0.324574 0.735777 -0.067096 0 127 127
-0.094651 -0.574292 -0.380523 127 127 0
0.305668 0.719717 0.350332 0 127 127
0.073079 0.735777 0.040208 0 127 127
-0.162714 0.691028 -0.474805 0 127 127
-0.450954 -0.847141 -0.039853 127 0 127
-0.187830 0.223631 -0.489518 127 127 0
0.567053 0.147838 -0.234367 127 127 0
0.246247 0.104827 0.407149 127 127 0
-0.508689 0.164355 0.344432 127 127 0
0.392698 -0.585439 -0.408678 127 127 0
-0.358546 -0.336748 -0.362714 127 127 0
-0.639916 0.401047 0.292956 127 127 0
-0.698430 0.510262 -0.036167 127 127 0
-0.487954 -0.648704 -0.248120 127 127 0
-0.422572 -0.717275 -0.206111 127 0 127
-0.510112 -0.711087 -0.025126 127 0 127
0.483484 0.719717 -0.003849 0 127 127
0.348181 -0.339817 -0.363124 127 127 0
-0.495783 0.719717 -0.149666 0 127 127
0.623150 0.321900 -0.005401 127 127 0
0.242704 0.501441 -0.489445 127 127 0
-0.310756 0.719717 -0.183615 0 127 127
0.016587 -0.717374 -0.062118 127 0 127
0.395933 0.034371 -0.379080 127 127 0
-0.424488 -0.531166 -0.330365 127 127 0
0.110176 0.268218 -0.434210 127 127 0
0.004708 -0.847141 0.290052 127 0 127
-0.595035 0.718636 -0.045574 0 127 127
-0.363645 0.719717 -0.098833 0 127 127
0.071843 -0.717649 -0.162537 127 0 127
0.622354 -0.506873 -0.103795 127 127 0
-0.384137 0.146858 0.456466 127 127 0
-0.423480 0.735777 0.177282 0 127 127
0.199110 -0.847141 0.048082 127 0 127
0.407680 0.719575 -0.346381 0 127 127
0.185074 0.274190 -0.428871 127 127 0
0.362907 -0.400989 0.429779 127 127 0
-0.114996 0.181171 0.490274 127 127 0
-0.185821 0.718707 0.388261 0 127 127
0.648888 0.512800 -0.267147 127 127 0
0.339705 0.735777 -0.165397 0 127 127
-0.418444 0.659211 -0.475837 0 127 127
-0.562961 0.402814 -0.316467 127 127 0
-0.073341 0.718072 0.400530 0 127 127
0.043006 0.719717 0.123318 0 127 127
0.415812 0.734868 -0.367963 0 127 127
-0.358776 -0.778281 0.378030 127 127 0
0.454067 -0.713086 -0.195105 127 0 127
-0.618730 0.234746 -0.025458 127 127 0
0.555775 -0.693622 -0.243630 127 127 0
-0.243648 0.146064 -0.481201 127 127 0
-0.591538 -0.293458 0.311732 127 127 0
0.381061 -0.717399 -0.164893 127 0 127
0.273025 0.735777 0.193396 0 127 127
0.568842 0.157183 -0.394282 127 127 0
0.652032 0.085304 -0.207095 127 127 0
0.110783 -0.509182 0.380352 127 127 0
0.666190 0.004928 -0.116231 127 127 0
-0.254820 0.038812 -0.475820 127 127 0
-0.008092 0.719717 -0.149039 0 127 127
-0.282147 -0.573623 -0.360200 127 127 0
0.641110 0.113683 -0.247741 127 127 0
0.352172 0.156718 0.461842 127 127 0
0.114564 0.704343 0.448468 0 127 127
0.200424 0.512425 -0.442665 127 127 0
0.643737 0.598416 0.076083 127 127 0
0.059350 -0.717177 0.306476 127 0 127
0.431200 -0.846725 0.232554 127 0 127
0.176342 0.185286 -0.423584 127 127 0
-0.664374 -0.192159 0.045960 127 127 0
-0.730093 0.685772 0.017253 0 127 127
-0.373475 -0.717067 -0.040946 127 0 127
0.599841 0.079137 0.028812 127 127 0
0.254802 -0.847141 -0.224374 127 0 127
0.197134 0.735777 0.281153 0 127 127
0.675317 0.146829 0.102887 127 127 0
-0.343555 0.735777 -0.051212 0 127 127
0.063375 0.719717 0.246990 0 127 127
-0.267496 -0.717067 0.202588 127 0 127
0.232463 0.345282 0.484596 127 127 0
0.508751 -0.555743 -0.204824 127 127 0
0.078250 -0.717583 -0.287630 127 0 127
0.454131 0.719717 -0.209937 0 127 127
-0.186846 -0.709915 -0.421436 127 127 0
-0.629397 -0.527560 0.045354 127 127 0
0.395839 -0.717362 -0.115788 127 0 127
0.021930 -0.704183 0.354971 127 127 0
-0.632818 -0.458511 0.101989 127 127 0
0.131323 0.735777 -0.013043 0 127 127
0.589811 0.229266 0.373079 127 127 0
0.367795 -0.717399 -0.060265 127 0 127
0.027456 0.719717 0.022897 0 127 127
-0.107027 0.513290 -0.501429 127 127 0
-0.335483 0.697384 -0.442899 0 127 127
0.398857 -0.559936 -0.335138 127 127 0
-0.601823 0.066510 -0.054325 127 127 0
0.106421 0.733741 0.418737 0 127 127
-0.174719 -0.847141 0.187358 127 0 127
-0.182252 -0.319251 0.387158 127 127 0
0.129119 0.623897 0.453018 127 127 0
0.626139 0.529175 -0.326194 127 127 0
-0.113487 -0.314269 0.393375 127 127 0
0.571343 0.003752 -0.174397 127 127 0
0.597294 0.357121 -0.203094 127 127 0
0.287526 0.635008 -0.443512 127 127 0
-0.310725 0.461820 -0.426125 127 127 0
-0.312642 -0.289246 -0.374328 127 127 0
0.274222 -0.847141 0.083929 127 0 127
-0.003588 -0.717176 0.306336 127 0 127
0.459249 0.669189 -0.492071 0 127 127
0.058023 -0.377171 0.391887 127 127 0
0.142785 0.697421 0.515330 0 127 127
-0.042543 0.217310 -0.433831 127 127 0
-0.597772 -0.666263 -0.116258 127 127 0
-0.634882 -0.286973 0.184713 127 127 0
-0.333963 0.061332 0.462352 127 127 0
0.501786 -0.093488 -0.420332 127 127 0
-0.296167 -0.717067 0.065822 127 0 127
-0.085380 -0.721575 0.423089 127 127 0
0.327499 0.024778 -0.392364 127 127 0
0.071499 -0.137360 -0.481800 127 127 0
-0.678977 0.600171 0.180779 127 127 0
-0.208308 -0.367494 -0.458174 127 127 0
-0.566294 0.403525 0.406599 127 127 0
0.538708 -0.806639 0.161750 127 127 0
-0.637081 0.730708 0.068763 0 127 127
-0.287835 -0.135668 -0.463065 127 127 0
0.244815 -0.407388 -0.376625 127 127 0
-0.577547 0.302863 0.394612 127 127 0
-0.414972 0.735777 0.342749 0 127 127
0.687578 0.277532 0.020122 127 127 0
-0.129310 0.715661 -0.489948 0 127 127
-0.582525 -0.273325 0.335086 127 127 0
-0.261251 -0.526349 -0.438295 127 127 0
-0.409360 -0.584944 0.328082 127 127 0
0.636709 0.659211 -0.379454 0 127 127
0.235393 0.640729 -0.484308 127 127 0
0.291886 -0.717399 -0.061856 127 0 127
0.009018 -0.847141 -0.307261 127 0 127
-0.008255 0.719717 -0.205740 0 127 127
-0.179947 -0.111391 -0.404457 127 127 0
0.721209 0.681369 0.111340 0 127 127
0.508240 0.258086 0.430195 127 127 0
0.631974 -0.422510 0.106208 127 127 0
-0.537263 -0.027395 0.275053 127 127 0
-0.683241 0.162274 0.080757 127 127 0
0.310749 0.500925 -0.427933 127 127 0
0.262580 0.719717 -0.305304 0 127 127
-0.077095 0.735777 0.047089 0 127 127
-0.152985 -0.715162 0.420174 127 127 0
-0.588623 -0.097485 0.011119 127 127 0
0.617769 -0.138000 -0.270574 127 127 0
-0.428299 -0.754836 0.369696 127 127 0
0.620639 0.731619 0.121242 0 127 127
-0.545937 -0.746518 0.237745 127 127 0
0.386707 0.731192 -0.404350 0 127 127
0.652617 -0.292368 0.003225 127 127 0
-0.500761 -0.377430 0.399232 127 127 0
0.207254 -0.700719 0.337496 127 127 0
0.542388 -0.094706 -0.399760 127 127 0
-0.507099 -0.409289 0.394232 127 127 0
0.648144 0.610471 -0.038978 127 127 0
-0.607929 0.733529 -0.143176 0 127 127
0.358764 0.196887 -0.465206 127 127 0
-0.449689 0.433170 0.393081 127 127 0
0.546858 -0.420561 -0.101858 127 127 0
-0.539435 -0.340038 0.184408 127 127 0
-0.123796 0.735777 0.069054 0 127 127
-0.646707 0.595558 -0.090058 127 127 0
0.210030 0.719717 -0.092456 0 127 127
-0.058761 0.527391 0.500344 127 127 0
-0.450526 -0.774357 0.358493 127 127 0
0.649779 -0.307921 -0.048021 127 127 0
-0.193943 0.726827 -0.452963 0 127 127
0.338419 -0.827092 -0.364808 127 127 0
-0.505182 0.428973 0.436182 127 127 0
-0.137608 -0.717067 0.075209 127 0 127
0.115520 -0.578537 0.375519 127 127 0
0.522833 0.681465 0.467090 0 127 127
0.214705 0.719717 -0.213680 0 127 127
-0.077214 0.735777 0.376108 0 127 127
0.607856 -0.058812 -0.310091 127 127 0
-0.052896 -0.062712 0.412060 127 127 0
0.141925 -0.099013 0.476988 127 127 0
0.580032 0.576234 -0.399273 127 127 0
-0.485946 -0.307316 -0.311885 127 127 0
-0.305140 -0.100800 -0.462525 127 127 0
0.603277 -0.615327 -0.115891 127 127 0
0.414247 0.719717 0.093223 0 127 127
0.633412 0.699871 -0.186071 0 127 127
-0.359364 -0.847141 -0.253675 127 0 127
-0.530938 0.735777 -0.043567 0 127 127
0.077518 0.181770 -0.430107 127 127 0
0.693294 0.575182 0.057804 127 127 0
-0.067569 -0.847141 0.004246 127 0 127
-0.375158 -0.441463 -0.350971 127 127 0
-0.629195 0.633385 -0.202117 127 127 0
0.247460 0.022455 0.472293 127 127 0
-0.576493 0.411545 0.286200 127 127 0
-0.369579 -0.717067 -0.196493 127 0 127
-0.212274 -0.847141 -0.111874 127 0 127
0.567345 -0.061935 0.378000 127 127 0
0.341764 -0.711524 0.304016 127 0 127
0.627277 0.704688 0.162388 0 127 127
-0.134154 0.735777 -0.203983 0 127 127
-0.294104 0.661917 -0.524407 0 127 127
-0.218836 -0.847141 -0.216029 127 0 127
0.007015 0.735777 -0.235081 0 127 127
-0.280320 -0.051309 -0.395870 127 127 0
-0.583673 0.494705 0.395261 127 127 0
-0.550789 -0.781808 -0.183500 127 127 0
-0.069449 0.719717 0.357631 0 127 127
-0.242424 -0.405315 0.448463 127 127 0
-0.679849 0.015044 0.012675 127 127 0
-0.411382 -0.717067 0.178697 127 0 127
-0.215264 0.719161 -0.383943 0 127 127
0.589682 0.714298 0.376146 0 127 127
0.424796 0.704453 0.406122 0 127 127
-0.603369 0.713056 -0.174286 0 127 127
0.543804 -0.646680 -0.301900 127 127 0
0.534768 0.735777 -0.072411 0 127 127
0.423100 -0.771450 -0.368564 127 127 0
0.339298 -0.847141 -0.020767 127 0 127
0.570899 -0.166613 0.095255 127 127 0
0.468454 -0.537558 0.288469 127 127 0
0.428381 0.422345 0.396679 127 127 0
0.201295 -0.847141 0.156682 127 0 127
0.445906 0.719717 0.276823 0 127 127
-0.249474 -0.709777 0.318507 127 0 127
0.057274 0.735777 -0.158549 0 127 127
-0.638128 -0.473684 0.004981 127 127 0
-0.533392 -0.454731 -0.171346 127 127 0
0.527484 -0.291411 0.223217 127 127 0
0.375595 0.735777 0.091529 0 127 127
-0.164984 0.501448 0.442433 127 127 0
0.479024 0.735777 -0.135409 0 127 127
-0.603682 0.363315 -0.198803 127 127 0
0.470934 -0.485655 0.398167 127 127 0
-0.057792 0.735777 -0.315865 0 127 127
0.482472 0.735777 -0.264722 0 127 127
-0.394035 0.399610 -0.464789 127 127 0
0.328386 0.211460 0.401813 127 127 0
-0.400640 -0.041465 0.445640 127 127 0
-0.504226 0.076916 -0.429515 127 127 0
-0.021156 0.734339 -0.419231 0 127 127
-0.577584 0.453171 0.399727 127 127 0
0.107493 -0.847141 -0.328339 127 0 127
0.461068 0.719717 0.057016 0 127 127
-0.526153 0.242314 -0.341361 127 127 0
-0.448305 0.513386 0.399521 127 127 0
0.348466 0.735777 0.118249 0 127 127
0.389802 -0.744832 -0.382681 127 127 0
-0.604186 0.726553 -0.285123 0 127 127
-0.612795 0.327706 0.349555 127 127 0
0.025587 0.719717 -0.320250 0 127 127
0.398466 -0.665996 -0.326723 127 127 0
-0.048838 0.112226 -0.427345 127 127 0
-0.318591 -0.435250 0.359892 127 127 0
-0.245024 0.728946 0.436181 0 127 127
0.014499 0.719717 0.250969 0 127 127
0.606747 0.378583 -0.174478 127 127 0
-0.118416 -0.030161 0.481931 127 127 0
-0.112067 0.725373 0.461343 0 127 127
-0.693831 0.411278 -0.070351 127 127 0
0.518759 -0.125645 0.407850 127 127 0
0.486842 -0.844961 -0.182546 127 0 127
0.449357 0.735777 0.219159 0 127 127
-0.110806 -0.717067 -0.098906 127 0 127
0.148150 -0.199025 -0.474263 127 127 0
-0.127178 0.719717 -0.366904 0 127 127
0.674284 0.645229 0.134263 127 127 0
0.552971 0.372716 -0.321170 127 127 0
0.088676 0.719717 -0.029218 0 127 127
-0.409825 -0.245476 -0.435521 127 127 0
0.619336 -0.075427 0.274740 127 127 0
0.588586 -0.017504 -0.069533 127 127 0
0.116184 0.719717 0.145674 0 127 127
0.629053 0.694266 0.236421 0 127 127
0.478404 -0.391630 0.299859 127 127 0
-0.667535 -0.086098 -0.099235 127 127 0
0.147993 0.719717 0.148966 0 127 127
-0.327394 0.432109 0.474159 127 127 0
0.584047 0.647182 0.329330 127 127 0
0.507494 -0.021997 -0.321455 127 127 0
-0.078207 0.347382 -0.499624 127 127 0
0.397055 -0.847000 0.270295 127 0 127
-0.066612 0.286815 -0.437609 127 127 0
-0.518013 0.719717 -0.262008 0 127 127
0.648741 -0.076468 0.175011 127 127 0
0.156725 0.660747 -0.538897 0 127 127
-0.096725 -0.127434 -0.409285 127 127 0
-0.432195 -0.396260 -0.419832 127 127 0
0.283179 -0.046137 -0.395528 127 127 0
-0.191287 -0.002545 -0.410105 127 127 0
0.080677 0.719717 -0.222211 0 127 127
-0.595541 -0.363980 0.284743 127 127 0
-0.675215 0.710675 -0.197281 0 127 127
-0.085835 0.735777 -0.269326 0 127 127
-0.171416 0.659211 0.498626 0 127 127
0.232800 0.719717 0.009193 0 127 127
-0.632107 -0.486169 -0.083969 127 127 0
-0.543228 0.732624 0.338119 0 127 127
0.363286 0.193423 0.394184 127 127 0
0.516754 -0.648413 -0.146340 127 127 0
0.590579 -0.017148 0.044811 127 127 0
-0.563136 0.735777 -0.055896 0 127 127
0.548926 -0.621208 -0.302454 127 127 0
-0.139365 -0.568601 -0.377821 127 127 0
-0.132483 -0.638535 0.434348 127 127 0
-0.305627 -0.847141 0.052164 127 0 127
0.517291 0.719717 -0.114839 0 127 127
-0.467413 -0.108272 -0.347168 127 127 0
-0.272754 0.065687 -0.474625 127 127 0
-0.258876 -0.847141 -0.270322 127 0 127
0.026527 0.719717 0.167749 0 127 127
0.499412 -0.006783 0.328325 127 127 0
-0.103842 -0.847141 -0.232122 127 0 127
-0.074917 0.719717 0.225083 0 127 127
0.265649 -0.485728 -0.441147 127 127 0
0.454971 -0.522348 -0.308835 127 127 0
-0.149971 -0.717067 0.117321 127 0 127
-0.558728 -0.813653 0.017724 127 127 0
-0.607764 0.521579 0.367193 127 127 0
0.476347 0.719717 -0.319318 0 127 127
-0.164976 -0.717067 0.199595 127 0 127
0.571896 0.317270 -0.266421 127 127 0
-0.122361 0.719717 -0.158156 0 127 127
0.211505 0.478114 -0.439187 127 127 0
-0.361516 0.286025 0.465108 127 127 0
0.336116 -0.788044 0.378241 127 127 0
-0.128779 -0.361219 0.389277 127 127 0
0.030818 -0.694068 0.429585 127 127 0
0.278638 0.659211 -0.492368 0 127 127
-0.256348 -0.046664 0.468640 127 127 0
0.379743 0.735777 0.292693 0 127 127
0.689497 0.437880 0.072413 127 127 0
-0.140236 0.160910 -0.425707 127 127 0
-0.285012 0.719717 0.346858 0 127 127
-0.380048 0.599069 -0.470565 127 127 0
0.479061 0.735777 -0.081249 0 127 127
0.459534 0.719717 0.139547 0 127 127
-0.023087 -0.531732 -0.385619 127 127 0
0.662834 0.696084 -0.035402 0 127 127
-0.097195 -0.713966 0.335274 127 127 0
0.584300 0.529686 -0.288724 127 127 0
0.105103 -0.101518 0.407126 127 127 0
0.201608 0.735777 0.215191 0 127 127
0.015157 0.627871 0.458841 127 127 0
0.198064 -0.138085 -0.400493 127 127 0
0.386319 0.114007 -0.457080 127 127 0
0.525031 -0.470212 -0.179194 127 127 0
0.037610 0.088463 -0.492928 127 127 0
-0.616085 -0.548312 0.130592 127 127 0
-0.210604 0.732834 0.417788 0 127 127
0.023076 0.707933 0.505311 0 127 127
-0.249999 -0.847141 -0.193267 127 0 127
0.567528 -0.448819 0.317857 127 127 0
-0.598086 0.375446 0.218695 127 127 0
0.004615 0.062761 0.420828 127 127 0
-0.159704 0.655059 -0.477433 127 127 0
-0.554940 -0.096215 0.211422 127 127 0
-0.011288 0.719717 0.346153 0 127 127
0.578627 0.407401 0.393284 127 127 0
0.511747 0.394414 -0.435550 127 127 0
-0.423063 0.207437 -0.386358 127 127 0
-0.443704 -0.769541 -0.365535 127 127 0
0.555682 -0.731619 0.206821 127 127 0
-0.247091 0.719717 0.126047 0 127 127
-0.650364 -0.216623 -0.143895 127 127 0
-0.632281 0.316874 -0.308646 127 127 0
0.144406 -0.717413 0.010835 127 0 127
0.148830 0.735777 -0.201905 0 127 127
-0.566696 -0.160443 0.374634 127 127 0
-0.540430 0.609410 -0.372709 127 127 0
0.514054 -0.842849 0.009336 127 0 127
-0.196612 -0.712786 -0.326672 127 0 127
0.687752 0.277037 -0.009028 127 127 0
0.617119 0.578562 -0.347563 127 127 0
-0.269906 0.735777 -0.190721 0 127 127
0.647809 -0.181104 0.145033 127 127 0
0.393854 -0.469865 -0.420791 127 127 0
-0.468912 -0.248591 -0.332248 127 127 0
-0.108572 -0.634003 0.372740 127 127 0
-0.306270 -0.717067 0.030776 127 0 127
0.673520 0.687615 -0.074351 0 127 127
-0.736229 0.671225 -0.066273 0 127 127
0.316181 0.465119 0.421256 127 127 0
-0.594382 -0.700205 0.081530 127 127 0
-0.174867 -0.704726 0.351622 127 127 0
-0.675649 -0.054735 0.007308 127 127 0
0.435859 -0.717386 0.127560 127 0 127
-0.567674 -0.322819 0.026518 127 127 0
0.384191 0.719717 0.126106 0 127 127
0.603371 0.140612 -0.062088 127 127 0
-0.167898 -0.098837 -0.478506 127 127 0
-0.414366 -0.516502 -0.412887 127 127 0
0.550344 -0.390052 0.094608 127 127 0
0.510859 0.262682 -0.355269 127 127 0
-0.655467 0.711051 0.258053 0 127 127
-0.293605 0.735777 0.086212 0 127 127
0.172561 0.310992 -0.492786 127 127 0
0.679560 0.242295 0.102638 127 127 0
0.162881 0.735777 0.039928 0 127 127
-0.491240 -0.236571 0.413190 127 127 0
-0.380345 0.611688 0.467239 127 127 0
-0.605093 0.734595 0.096134 0 127 127
-0.527512 0.689665 -0.463504 0 127 127
-0.092382 0.735777 -0.345003 0 127 127
0.233972 0.728550 -0.441537 0 127 127
-0.181927 0.288331 0.488543 127 127 0
-0.676670 0.655111 0.043395 127 127 0
0.600327 0.249181 0.146262 127 127 0
-0.502991 -0.843760 -0.121876 127 0 127
-0.167502 -0.203629 -0.472875 127 127 0
-0.443982 -0.846905 0.248268 127 0 127
0.385557 0.070489 -0.383810 127 127 0
0.266409 -0.748913 0.400337 127 127 0
-0.627712 -0.211259 0.233788 127 127 0
-0.374221 0.481718 -0.415979 127 127 0
-0.003503 -0.847141 -0.191200 127 0 127
-0.596333 0.046071 -0.094170 127 127 0
-0.404106 -0.717120 0.254318 127 0 127
0.399297 0.659211 -0.491182 0 127 127
-0.524498 0.735251 0.320426 0 127 127
-0.367847 0.719717 0.082030 0 127 127
0.097503 0.269303 0.431570 127 127 0
-0.579368 0.075793 -0.186496 127 127 0
0.218021 -0.847141 0.028123 127 0 127
0.010971 0.735777 0.280374 0 127 127
-0.476616 0.048362 0.432885 127 127 0
-0.219285 0.627596 0.489543 127 127 0
-0.542687 -0.378454 -0.162838 127 127 0
0.165721 -0.572613 -0.442989 127 127 0
-0.160944 0.727480 0.450336 0 127 127
0.357140 -0.369736 -0.436429 127 127 0
0.608142 0.602681 0.240395 127 127 0
0.601875 0.732502 0.181410 0 127 127
0.183858 -0.717732 -0.092480 127 0 127
0.281150 0.715726 0.393986 0 127 127
0.009606 0.735777 -0.284758 0 127 127
-0.071971 0.704866 0.449509 0 127 127
-0.321009 0.654130 0.458687 127 127 0
0.176516 -0.847141 -0.277033 127 0 127
-0.301663 0.522000 0.479541 127 127 0
0.259569 0.574892 0.485281 127 127 0
0.671633 0.690190 0.053551 0 127 127
-0.357496 0.734732 -0.382253 0 127 127
-0.452568 0.725620 0.413092 0 127 127
0.308811 0.735777 0.183542 0 127 127
0.573373 -0.515341 0.281817 127 127 0
0.656540 0.726039 0.008003 0 127 127
-0.018729 -0.847141 -0.079422 127 0 127
0.567540 -0.766718 0.099625 127 127 0
0.193234 -0.716692 -0.303747 127 0 127
-0.498759 0.681708 -0.432378 0 127 127
-0.420713 0.065714 -0.449312 127 127 0
-0.639138 -0.409371 0.098290 127 127 0
-0.445441 0.735777 -0.113205 0 127 127
-0.062965 -0.847141 0.231959 127 0 127
0.323074 0.719717 -0.109368 0 127 127
0.580368 0.089390 -0.170734 127 127 0
-0.633631 0.731199 -0.078937 0 127 127
0.200815 0.281878 0.486331 127 127 0
-0.677207 0.659211 -0.260711 0 127 127
0.234949 -0.020591 -0.475104 127 127 0
0.005356 -0.552638 -0.384360 127 127 0
-0.308476 -0.783264 -0.388695 127 127 0
-0.516984 -0.492399 -0.211757 127 127 0
-0.407153 0.659211 0.473669 0 127 127
-0.553609 -0.479081 0.015796 127 127 0
0.545512 -0.588208 0.319332 127 127 0
0.583645 -0.599308 -0.217079 127 127 0
-0.235311 -0.847141 0.058065 127 0 127
0.476798 -0.365730 0.305445 127 127 0
0.523562 -0.623098 -0.128489 127 127 0
-0.561829 0.702869 -0.358346 0 127 127
-0.122986 0.563646 -0.501244 127 127 0
0.193267 0.732935 0.418299 0 127 127
0.288766 -0.779777 -0.391908 127 127 0
-0.335646 0.508328 0.421713 127 127 0
0.294852 0.193721 -0.475539 127 127 0
0.267903 0.719717 0.211417 0 127 127
0.393604 -0.432439 0.342912 127 127 0
0.001429 -0.122254 -0.412060 127 127 0
0.252683 -0.212096 -0.462969 127 127 0
0.579907 0.606119 0.313021 127 127 0
-0.435502 0.735777 0.294807 0 127 127
0.529009 -0.441755 0.172289 127 127 0
0.122667 0.251615 0.491552 127 127 0
0.003172 -0.847141 -0.142255 127 0 127
0.126125 0.719717 -0.247256 0 127 127
0.612094 0.649794 -0.274174 127 127 0
-0.403389 -0.847141 0.130757 127 0 127
0.072406 -0.322936 0.467346 127 127 0
-0.018822 0.170326 0.492767 127 127 0
0.412006 -0.590016 0.325487 127 127 0
0.495970 0.659211 0.448872 0 127 127
0.564996 -0.144788 -0.142764 127 127 0
-0.128011 0.719717 0.242361 0 127 127
-0.032455 -0.712257 0.340000 127 127 0
0.335112 -0.564562 0.418720 127 127 0
-0.076958 -0.038288 -0.486639 127 127 0
-0.233973 0.459464 -0.435988 127 127 0
-0.541531 -0.540055 0.090704 127 127 0
0.033262 -0.358005 -0.396741 127 127 0
-0.457570 0.729238 -0.400355 0 127 127
0.421995 0.454538 0.456088 127 127 0
-0.237713 0.660939 -0.531673 0 127 127
-0.690662 0.381476 -0.091542 127 127 0
-0.040338 -0.697860 0.359959 127 127 0
0.511035 0.509038 -0.438073 127 127 0
-0.564933 -0.338679 0.048599 127 127 0
-0.489181 0.679837 -0.481609 0 127 127
-0.262948 0.161218 -0.479413 127 127 0
0.483911 0.735777 0.175509 0 127 127
-0.596571 0.305181 -0.204506 127 127 0
0.614280 0.487116 -0.185406 127 127 0
-0.649180 0.625790 -0.277647 127 127 0
0.126019 0.140502 -0.424729 127 127 0
-0.606759 0.734935 -0.031011 0 127 127
0.419729 0.457906 0.400960 127 127 0
0.599221 0.017917 0.338258 127 127 0
-0.549016 -0.089904 0.395446 127 127 0
0.491086 0.735777 0.296683 0 127 127
0.141920 -0.657693 0.430505 127 127 0
-0.493988 0.234986 0.362328 127 127 0
-0.143051 0.180563 0.488618 127 127 0
-0.395521 0.626774 -0.422224 127 127 0
-0.416408 0.735777 -0.298121 0 127 127
-0.168301 0.735777 0.307183 0 127 127
-0.568264 -0.578882 0.281052 127 127 0
0.570639 0.735027 0.205407 0 127 127
0.077767 0.734789 -0.412223 0 127 127
-0.004515 -0.820785 0.395685 127 127 0
-0.655091 0.574377 0.262633 127 127 0
-0.416298 -0.671767 -0.392304 127 127 0
0.305977 0.735777 0.116378 0 127 127
0.200697 0.118059 0.481197 127 127 0
0.492793 0.032943 0.426566 127 127 0
-0.321857 0.731410 -0.415774 0 127 127
-0.156215 -0.845235 -0.351259 127 0 127
0.613731 -0.545242 -0.123237 127 127 0
0.272618 0.287119 -0.481290 127 127 0
-0.431999 0.719717 0.079382 0 127 127
-0.621764 0.723584 -0.265568 0 127 127
-0.127872 0.513017 0.445851 127 127 0
-0.100232 0.339736 0.495051 127 127 0
-0.509456 -0.488815 -0.387270 127 127 0
-0.553920 -0.624040 0.296554 127 127 0
-0.386508 0.020506 -0.454225 127 127 0
-0.400240 0.211307 0.455413 127 127 0
-0.590476 0.517777 0.280251 127 127 0
0.577966 0.727284 -0.327375 0 127 127
-0.454076 0.144544 -0.373316 127 127 0
0.018242 0.653365 -0.484874 127 127 0
0.039525 -0.606983 0.442308 127 127 0
0.595216 0.691799 -0.336358 0 127 127
0.328006 0.724973 -0.442182 0 127 127
0.533350 -0.601464 0.075448 127 127 0
-0.140903 0.060044 0.415515 127 127 0
-0.230408 0.035765 0.405145 127 127 0
0.034352 0.731714 0.435751 0 127 127
0.295769 -0.717504 -0.290857 127 0 127
-0.468634 0.735777 0.263224 0 127 127
0.471827 -0.712479 0.130767 127 0 127
0.380909 0.008115 0.450706 127 127 0
0.575187 0.715735 -0.217177 0 127 127
0.595860 0.273399 -0.179153 127 127 0
-0.486243 -0.717304 -0.020464 127 0 127
-0.622966 0.730933 0.151817 0 127 127
-0.345642 0.719717 0.115192 0 127 127
-0.200837 0.067071 -0.482993 127 127 0
0.190992 -0.847141 -0.206452 127 0 127
-0.420164 0.735777 0.038680 0 127 127
-0.638486 0.704490 0.130553 0 127 127
0.546809 0.131913 -0.281931 127 127 0
-0.330706 -0.717067 0.182027 127 0 127
-0.587125 0.119016 -0.173914 127 127 0
-0.199711 -0.834870 0.374716 127 127 0
0.494978 -0.223180 -0.306259 127 127 0
0.032671 0.553248 0.452138 127 127 0
-0.629761 0.729230 -0.166606 0 127 127
-0.256522 -0.704266 -0.414544 127 127 0
0.590762 0.484618 0.382936 127 127 0
0.217751 0.148186 0.413567 127 127 0
-0.548986 0.717218 -0.278919 0 127 127
-0.635878 0.676447 -0.396716 0 127 127
0.609234 0.659211 0.392185 0 127 127
-0.097582 0.405990 0.440590 127 127 0
-0.634797 -0.240810 -0.204190 127 127 0
-0.575585 -0.083762 0.137376 127 127 0
-0.477573 0.494223 0.390491 127 127 0
-0.116688 -0.597747 0.374504 127 127 0
-0.555416 -0.437053 -0.057987 127 127 0
-0.014381 0.266083 0.433870 127 127 0
0.204728 0.506838 -0.493510 127 127 0
0.521981 0.735777 -0.005510 0 127 127
0.652369 0.293218 0.234829 127 127 0
-0.127512 0.341615 0.434750 127 127 0
-0.637354 0.443119 -0.039060 127 127 0
-0.379646 0.731056 0.404107 0 127 127
0.057408 -0.546711 -0.452091 127 127 0
-0.564428 -0.149784 0.161164 127 127 0
0.517102 -0.703301 0.327440 127 127 0
0.248689 0.216956 -0.482350 127 127 0
-0.436983 -0.838288 -0.325345 127 0 127
-0.420666 0.604632 -0.462577 127 127 0
0.247052 -0.808122 0.384585 127 127 0
-0.329830 -0.338007 -0.368233 127 127 0
-0.521205 -0.593167 -0.167665 127 127 0
0.207910 -0.847141 0.218614 127 0 127
0.299204 -0.717357 0.245956 127 0 127
-0.328929 -0.847090 0.296549 127 0 127
-0.632254 -0.279000 -0.201123 127 127 0
-0.601648 0.284212 0.365414 127 127 0
0.166752 0.733145 0.419350 0 127 127
-0.687056 0.359847 0.110562 127 127 0
-0.494420 -0.746206 0.343300 127 127 0
0.678897 0.718237 -0.021022 0 127 127
0.122021 0.735777 -0.121876 0 127 127
0.690786 0.661756 -0.106538 0 127 127
-0.275623 0.712322 -0.482811 0 127 127
0.064295 0.719717 0.139293 0 127 127
-0.640700 -0.350074 0.128511 127 127 0
-0.491513 -0.842383 0.211951 127 0 127
-0.190581 0.701181 0.507149 0 127 127
-0.587517 0.714689 0.204655 0 127 127
-0.646581 0.117855 0.242535 127 127 0
0.666156 0.715740 -0.173099 0 127 127
-0.160314 0.305439 -0.433294 127 127 0
-0.680483 0.080535 0.068142 127 127 0
-0.644983 0.706044 0.051982 0 127 127
0.356012 -0.164888 -0.373555 127 127 0
-0.136000 0.310338 -0.435324 127 127 0
-0.023330 -0.717067 0.020760 127 0 127
-0.442167 0.573416 -0.408167 127 127 0
-0.610622 -0.542512 0.162244 127 127 0
-0.580172 -0.760247 -0.044451 127 127 0
-0.575469 0.018994 -0.181490 127 127 0
0.283086 0.100457 0.470868 127 127 0
-0.562431 -0.531091 0.313615 127 127 0
0.563066 0.735777 0.107241 0 127 127
0.600091 -0.120316 -0.318247 127 127 0
0.386469 0.735777 -0.172258 0 127 127
-0.443578 0.712560 -0.381269 0 127 127
-0.648064 0.553471 0.280735 127 127 0
0.617533 -0.401072 -0.193869 127 127 0
0.664982 0.010124 0.122595 127 127 0
0.455989 0.540201 -0.453103 127 127 0
0.689673 0.409333 -0.062705 127 127 0
-0.421733 -0.068311 0.440011 127 127 0
-0.657105 0.505590 -0.256057 127 127 0
-0.672749 0.127270 -0.144466 127 127 0
0.301396 0.719717 -0.082068 0 127 127
0.558323 -0.257051 -0.126067 127 127 0
-0.668644 0.393454 -0.208316 127 127 0
-0.318669 0.366648 -0.417746 127 127 0
0.061213 -0.076161 0.482014 127 127 0
-0.036430 -0.049778 -0.487296 127 127 0
-0.215353 -0.542973 -0.441967 127 127 0
-0.497338 0.719717 0.235391 0 127 127
-0.630747 0.376849 -0.051394 127 127 0
-0.240732 0.719717 -0.343048 0 127 127
-0.378228 -0.779725 -0.376972 127 127 0
-0.676977 0.720530 0.034323 0 127 127
-0.257129 0.719599 0.465766 0 127 127
0.180186 0.719717 0.059556 0 127 127
-0.317247 0.719717 -0.149547 0 127 127
-0.563125 0.127911 0.249336 127 127 0
-0.534812 0.735531 0.282686 0 127 127
0.091347 -0.812785 0.396969 127 127 0
0.301704 0.719717 0.089428 0 127 127
0.140854 -0.600136 -0.441585 127 127 0
-0.524765 0.471353 0.366640 127 127 0
0.207580 -0.008249 0.475429 127 127 0
-0.059095 -0.717067 0.193374 127 0 127
-0.643244 0.600241 0.118009 127 127 0
0.328012 -0.214736 -0.375549 127 127 0
0.300616 0.293013 0.411871 127 127 0
-0.630987 0.362313 -0.004188 127 127 0
0.227007 -0.534982 0.367115 127 127 0
0.415191 0.634027 -0.419112 127 127 0
0.532049 -0.295100 0.387996 127 127 0
0.373817 -0.847141 -0.187559 127 0 127
0.073540 0.659211 0.535744 0 127 127
0.124090 -0.452663 0.383083 127 127 0
-0.571242 -0.667141 -0.228149 127 127 0
-0.397294 0.655210 0.445613 127 127 0
0.059321 0.422613 0.442997 127 127 0
-0.167114 0.332991 0.490846 127 127 0
0.605136 0.135801 -0.026970 127 127 0
-0.346337 -0.630642 -0.412408 127 127 0
-0.174307 -0.847141 -0.000453 127 0 127
-0.341207 0.136127 0.395175 127 127 0
0.150935 0.604741 0.450028 127 127 0
0.655194 0.723940 -0.113744 0 127 127
-0.206010 -0.779565 0.400344 127 127 0
-0.469223 -0.503226 0.398223 127 127 0
0.040224 0.735777 0.035899 0 127 127
0.641747 -0.065169 -0.210525 127 127 0
0.375262 0.273637 -0.464428 127 127 0
0.681406 0.202020 0.071490 127 127 0
0.666499 0.697257 -0.277810 0 127 127
-0.162381 0.719717 -0.102918 0 127 127
-0.365837 0.719717 0.177605 0 127 127
0.106812 -0.255641 0.397052 127 127 0
-0.655168 0.356592 -0.249583 127 127 0
0.575191 0.461651 -0.400983 127 127 0
0.324168 -0.846196 -0.325540 127 0 127
-0.129782 -0.577717 -0.445452 127 127 0
-0.041279 -0.142661 0.407270 127 127 0
0.644620 0.202842 -0.250410 127 127 0
-0.392913 0.625873 -0.468156 127 127 0
-0.092177 -0.650230 0.434868 127 127 0
0.072367 0.719717 -0.329657 0 127 127
0.527662 -0.706678 -0.306755 127 127 0
-0.002380 0.735777 -0.047976 0 127 127
0.436139 -0.371567 0.416727 127 127 0
0.315442 0.115714 0.466620 127 127 0
-0.318664 0.000661 0.390004 127 127 0
-0.668984 -0.024875 0.113295 127 127 0
