ply
format ascii 1.0
element vertex 1243
property float x
property float y
property float z
property uchar red
property uchar green
property uchar blue
end_header
0.078021 0.735778 -0.035650 0 127 127
0.504352 0.714889 0.348921 0 127 127
0.161282 0.735778 -0.337759 0 127 127
0.518856 -0.626939 -0.163039 127 127 0
-0.219607 -0.461301 -0.380710 127 127 0
-0.528053 -0.721061 0.296406 127 127 0
-0.633661 0.638914 -0.199844 127 127 0
-0.148540 0.147777 0.424868 127 127 0
0.637931 0.493924 -0.083773 127 127 0
-0.069775 -0.334974 -0.401300 127 127 0
-0.259519 0.202895 0.416503 127 127 0
-0.120102 0.231916 -0.435127 127 127 0
-0.720189 0.666810 -0.180471 0 127 127
-0.194940 -0.843356 0.334450 127 127 0
0.570300 -0.000120 0.189725 127 127 0
0.688050 0.409122 0.029038 127 127 0
-0.612254 0.728046 -0.244546 0 127 127
0.558692 -0.426459 0.008223 127 127 0
0.634389 0.405820 0.016136 127 127 0
0.334921 -0.843356 -0.178714 127 0 127
0.533776 0.397012 -0.359068 127 127 0
-0.201429 0.684856 -0.525818 0 127 127
-0.566128 0.091624 -0.246405 127 127 0
-0.377810 0.076071 -0.391133 127 127 0
0.427719 -0.478702 0.405949 127 127 0
0.602322 0.651989 -0.327163 127 127 0
-0.439485 0.719717 0.125067 0 127 127
-0.125210 0.241112 0.432310 127 127 0
0.266380 0.100089 0.407998 127 127 0
0.536656 0.288631 -0.418830 127 127 0
-0.657995 0.710571 -0.256438 0 127 127
-0.380823 0.345417 0.459317 127 127 0
0.507675 -0.663359 -0.190559 127 127 0
-0.168212 -0.395592 0.453485 127 127 0
0.062540 -0.618863 -0.439932 127 127 0
0.494358 0.003863 -0.424919 127 127 0
0.045114 -0.573719 -0.445920 127 127 0
-0.589243 0.261753 0.377361 127 127 0
-0.464756 0.139218 -0.375153 127 127 0
-0.392054 0.075180 0.384739 127 127 0
0.682686 0.269430 -0.055566 127 127 0
0.274731 0.029562 -0.468626 127 127 0
-0.615155 0.154740 -0.041060 127 127 0
0.665096 -0.083917 -0.035039 127 127 0
0.691550 0.694275 0.204321 0 127 127
0.124716 0.735778 0.177234 0 127 127
-0.486966 -0.461819 -0.298996 127 127 0
0.249211 0.735778 -0.174926 0 127 127
0.498135 -0.536738 -0.249795 127 127 0
0.302443 0.548765 0.432989 127 127 0
-0.309407 0.735778 0.143343 0 127 127
0.066690 0.048159 0.422800 127 127 0
0.319071 0.710177 -0.413333 0 127 127
-0.700956 0.710033 -0.013231 0 127 127
-0.350252 -0.552642 -0.352500 127 127 0
-0.543120 -0.654404 0.298605 127 127 0
0.519098 -0.561923 0.361867 127 127 0
-0.268231 0.697858 0.503127 0 127 127
-0.512825 0.361836 0.370153 127 127 0
-0.315784 -0.337660 0.370958 127 127 0
-0.649992 -0.303679 -0.071030 127 127 0
-0.308531 0.639152 0.476111 127 127 0
0.615867 -0.349972 -0.206571 127 127 0
0.606695 0.483471 0.223937 127 127 0
0.566715 -0.764639 -0.095362 127 127 0
-0.403087 -0.393766 0.420019 127 127 0
-0.331364 0.379058 -0.472215 127 127 0
-0.369891 -0.361654 -0.361685 127 127 0
-0.233948 -0.843356 -0.255433 127 0 127
0.649577 0.683283 -0.225484 0 127 127
-0.107851 -0.483524 -0.389538 127 127 0
-0.300006 0.556529 0.434495 127 127 0
0.457664 -0.720851 0.198482 127 0 127
-0.468280 -0.474333 -0.401322 127 127 0
-0.289134 -0.843356 0.002982 127 0 127
-0.125254 -0.033358 0.414536 127 127 0
-0.084633 0.621837 -0.462499 127 127 0
0.103732 -0.141071 -0.411686 127 127 0
0.296777 -0.376912 -0.442351 127 127 0
0.616384 0.416290 -0.169019 127 127 0
-0.254644 0.735778 -0.040927 0 127 127
-0.000962 -0.543523 -0.389212 127 127 0
0.055609 -0.843356 -0.016871 127 0 127
-0.334907 0.043316 -0.396829 127 127 0
-0.661040 -0.122905 -0.102698 127 127 0
-0.685919 0.675921 0.116932 0 127 127
0.088163 -0.759291 -0.414704 127 127 0
0.646313 0.685672 -0.356777 0 127 127
0.545607 0.719717 0.184535 0 127 127
0.595894 0.526126 0.374086 127 127 0
-0.400621 -0.235821 -0.363709 127 127 0
-0.692070 0.423324 -0.055156 127 127 0
0.573569 0.283801 -0.265556 127 127 0
0.367417 -0.268138 0.364786 127 127 0
0.524421 0.735778 -0.117510 0 127 127
0.597915 0.010916 0.026833 127 127 0
0.142242 0.223467 -0.489168 127 127 0
0.493550 -0.367572 0.294893 127 127 0
0.110738 -0.477808 0.449936 127 127 0
-0.437139 -0.044481 0.434124 127 127 0
0.224959 -0.595921 0.427735 127 127 0
-0.243763 -0.843356 0.042655 127 0 127
-0.524927 -0.069324 -0.306659 127 127 0
0.375222 0.735778 -0.273098 0 127 127
-0.468580 0.137526 -0.437751 127 127 0
0.018470 0.080120 -0.428921 127 127 0
-0.581228 0.157289 -0.221861 127 127 0
0.228256 -0.720851 -0.281685 127 0 127
-0.645169 0.546230 -0.101952 127 127 0
-0.590762 -0.007266 -0.357441 127 127 0
-0.444232 -0.720851 -0.014337 127 0 127
0.516316 0.669677 0.433479 0 127 127
0.240009 -0.095476 0.398611 127 127 0
-0.321186 0.673036 -0.476744 0 127 127
-0.613244 0.651989 0.294800 127 127 0
-0.595504 0.086447 0.139107 127 127 0
-0.559051 -0.757781 -0.174967 127 127 0
0.007866 -0.523509 0.448940 127 127 0
0.600543 -0.466294 -0.215040 127 127 0
0.525541 -0.729076 0.286130 127 127 0
-0.575028 0.206760 0.389087 127 127 0
-0.567999 -0.688162 -0.212319 127 127 0
-0.093959 0.659212 0.523060 0 127 127
-0.219339 0.126051 -0.479582 127 127 0
-0.480760 0.213207 0.434462 127 127 0
-0.109110 0.691880 -0.526687 0 127 127
-0.141974 0.718601 -0.482211 0 127 127
-0.152002 0.629506 0.493343 127 127 0
-0.632564 0.351647 0.052804 127 127 0
0.240573 0.095183 -0.475883 127 127 0
0.490714 0.169957 -0.432619 127 127 0
0.598369 -0.073880 0.318076 127 127 0
-0.078247 0.651742 0.461466 127 127 0
0.560129 0.419591 0.405184 127 127 0
-0.609300 0.710893 0.178629 0 127 127
0.364766 0.268357 0.402937 127 127 0
0.563079 0.332339 -0.301760 127 127 0
-0.224444 0.396596 0.433849 127 127 0
-0.520456 0.735778 -0.247848 0 127 127
-0.657515 -0.019866 -0.163203 127 127 0
0.631385 -0.352213 -0.138106 127 127 0
0.482387 -0.438194 0.299581 127 127 0
-0.544764 0.236680 0.326269 127 127 0
0.311134 0.310232 -0.472797 127 127 0
-0.279390 -0.720851 -0.259811 127 0 127
0.101295 0.703694 -0.512733 0 127 127
0.189414 -0.458730 -0.383849 127 127 0
-0.017007 -0.446982 0.392046 127 127 0
-0.058902 0.719717 0.042362 0 127 127
0.086509 0.004148 -0.422121 127 127 0
0.105117 -0.219653 0.403410 127 127 0
-0.279726 -0.435475 -0.440686 127 127 0
0.533971 0.104676 -0.413145 127 127 0
0.017114 0.080212 -0.489300 127 127 0
-0.672810 0.607397 0.193095 127 127 0
-0.315687 0.277753 -0.471979 127 127 0
-0.312795 -0.341843 0.440113 127 127 0
0.523396 -0.837390 0.109986 127 0 127
-0.086550 0.695147 -0.472651 0 127 127
0.662562 0.098456 -0.148757 127 127 0
-0.284961 -0.002478 0.399135 127 127 0
-0.325347 -0.843356 -0.091949 127 0 127
0.235794 -0.792827 -0.392752 127 127 0
-0.514948 -0.708160 0.162580 127 127 0
0.311303 0.299677 -0.418001 127 127 0
0.532654 0.263389 0.340163 127 127 0
-0.519211 -0.413476 0.236567 127 127 0
0.318331 -0.377058 0.436187 127 127 0
-0.671002 -0.071761 -0.021479 127 127 0
0.201182 -0.843356 0.163604 127 0 127
-0.528506 0.186115 -0.421459 127 127 0
-0.056336 0.386835 0.444871 127 127 0
-0.589774 -0.128698 -0.028030 127 127 0
-0.580427 0.519817 -0.398279 127 127 0
0.595286 0.686386 0.423065 0 127 127
-0.429063 0.719717 -0.338764 0 127 127
-0.366172 -0.371043 0.358750 127 127 0
0.066994 -0.436479 -0.458891 127 127 0
-0.310553 -0.634437 -0.354561 127 127 0
-0.055769 0.571232 0.497358 127 127 0
0.639608 0.599876 0.134967 127 127 0
0.661977 0.012018 0.123953 127 127 0
-0.445136 0.718472 0.348311 0 127 127
0.663628 0.164444 0.156567 127 127 0
0.562187 -0.612477 -0.263539 127 127 0
-0.620273 0.125381 0.305832 127 127 0
-0.473489 -0.089943 0.349225 127 127 0
0.291548 0.166237 0.408877 127 127 0
0.631321 0.617557 -0.308671 127 127 0
0.173666 -0.687283 -0.370421 127 127 0
0.011469 0.521337 0.497505 127 127 0
0.599162 0.595840 0.371513 127 127 0
0.567281 -0.778675 0.021090 127 127 0
0.426985 0.719717 0.225495 0 127 127
-0.500789 -0.565249 0.244413 127 127 0
-0.265230 -0.040599 -0.467480 127 127 0
0.102978 -0.375955 -0.396523 127 127 0
0.102755 -0.683947 0.373490 127 127 0
-0.187654 0.405537 -0.441234 127 127 0
-0.466613 -0.208473 -0.421638 127 127 0
0.014736 0.637944 0.498715 127 127 0
0.588381 -0.710287 0.020821 127 127 0
0.594932 0.095320 0.122933 127 127 0
-0.345421 -0.843356 0.129275 127 0 127
0.408597 0.109162 -0.385499 127 127 0
-0.669142 0.030589 -0.118388 127 127 0
-0.583804 -0.200350 0.010028 127 127 0
-0.472612 -0.691299 0.368661 127 127 0
-0.614610 -0.086292 0.289017 127 127 0
-0.033609 -0.194119 0.473036 127 127 0
-0.615710 0.634209 -0.355254 127 127 0
0.083436 -0.232200 0.469595 127 127 0
0.159032 -0.742488 0.410718 127 127 0
0.497023 -0.382328 -0.287955 127 127 0
-0.438561 0.492450 0.403993 127 127 0
-0.305595 -0.843356 -0.214395 127 0 127
0.182806 0.394566 -0.490246 127 127 0
-0.341858 -0.484080 -0.426592 127 127 0
0.021467 -0.843356 0.061109 127 0 127
0.015970 0.158174 -0.492091 127 127 0
0.368679 0.352138 -0.463981 127 127 0
0.647652 0.332102 0.243219 127 127 0
0.071110 0.735778 0.369636 0 127 127
-0.266425 -0.647080 -0.419071 127 127 0
-0.459498 0.730850 -0.391288 0 127 127
-0.116069 -0.492311 0.385371 127 127 0
-0.637629 0.369701 -0.291041 127 127 0
0.158885 0.155804 -0.486030 127 127 0
0.559713 -0.766902 -0.133898 127 127 0
0.629730 0.420810 -0.096545 127 127 0
0.530077 -0.650099 -0.102330 127 127 0
0.649817 -0.278084 0.035237 127 127 0
-0.319899 0.735778 0.038228 0 127 127
-0.019280 -0.465041 0.454343 127 127 0
0.609513 0.617610 -0.256062 127 127 0
0.389228 0.523746 -0.419168 127 127 0
0.636904 -0.377431 -0.083003 127 127 0
0.506526 0.735778 -0.010478 0 127 127
-0.623988 0.596628 0.217441 127 127 0
0.501133 -0.314202 0.291163 127 127 0
0.300966 0.719717 0.351638 0 127 127
0.055955 -0.451273 0.454789 127 127 0
-0.568790 -0.366269 -0.009574 127 127 0
0.175933 0.241134 -0.431159 127 127 0
-0.081655 -0.613579 0.437178 127 127 0
0.652321 0.129975 -0.200875 127 127 0
-0.657712 0.029548 -0.177739 127 127 0
-0.556598 -0.482031 -0.050495 127 127 0
0.633820 0.650295 0.183510 127 127 0
-0.077105 -0.463115 0.389597 127 127 0
0.336449 -0.720851 0.059007 127 0 127
-0.556288 -0.007551 0.243752 127 127 0
-0.609011 -0.156757 -0.293127 127 127 0
-0.151773 -0.720851 0.266890 127 0 127
0.656089 0.398226 -0.225039 127 127 0
0.300567 0.696958 0.445168 0 127 127
0.111850 0.081835 -0.486217 127 127 0
-0.308607 -0.761341 -0.391906 127 127 0
-0.088672 0.715486 0.413710 0 127 127
-0.660059 0.648303 -0.045403 127 127 0
-0.200818 0.735778 0.147102 0 127 127
-0.704024 0.703792 0.103395 0 127 127
-0.574791 0.519681 0.399893 127 127 0
-0.546628 -0.205898 0.216357 127 127 0
-0.046763 0.278944 0.438125 127 127 0
-0.246315 0.719717 0.111083 0 127 127
-0.530324 -0.577369 0.151800 127 127 0
0.701756 0.659212 -0.003994 0 127 127
0.182587 0.734021 0.411060 0 127 127
0.367517 0.682389 -0.504362 0 127 127
-0.054232 0.371205 -0.497265 127 127 0
-0.101662 -0.268252 0.466503 127 127 0
0.112879 -0.843356 0.003337 127 0 127
0.170124 -0.720851 -0.213810 127 0 127
0.411308 -0.206028 -0.433274 127 127 0
0.654409 -0.225585 -0.038066 127 127 0
0.425507 0.735778 -0.249108 0 127 127
-0.562138 -0.418782 -0.342948 127 127 0
0.288742 -0.344202 -0.445809 127 127 0
-0.610934 0.734010 0.104587 0 127 127
0.048966 0.144553 -0.432456 127 127 0
-0.612891 0.422072 -0.200426 127 127 0
0.432708 -0.645110 0.317016 127 127 0
0.451545 -0.072082 0.358266 127 127 0
0.627516 0.330006 0.298810 127 127 0
-0.555765 -0.368404 -0.128591 127 127 0
-0.365418 0.156466 0.395933 127 127 0
-0.551504 -0.819608 0.029864 127 127 0
0.566382 0.139436 -0.246059 127 127 0
0.337449 0.735778 -0.051863 0 127 127
0.308443 -0.560258 -0.423720 127 127 0
0.663135 0.642139 0.213621 127 127 0
-0.548317 -0.569391 0.049548 127 127 0
0.563471 -0.299588 0.093708 127 127 0
0.337174 0.719717 -0.165706 0 127 127
-0.625188 0.712739 0.023830 0 127 127
0.028385 -0.499578 0.388348 127 127 0
-0.526853 -0.512996 0.186919 127 127 0
0.009848 0.719220 0.391715 0 127 127
0.179030 0.719717 0.092072 0 127 127
0.413419 0.401020 0.402132 127 127 0
0.171219 -0.480355 -0.448634 127 127 0
0.191129 -0.297557 -0.394260 127 127 0
-0.623925 0.308733 -0.096855 127 127 0
0.247817 0.526983 -0.442356 127 127 0
-0.492582 0.427617 0.385364 127 127 0
0.391253 -0.073284 -0.376403 127 127 0
-0.282935 -0.535695 0.363324 127 127 0
0.523847 -0.372589 -0.225040 127 127 0
0.609223 -0.494432 -0.168314 127 127 0
0.699205 0.659212 -0.122085 0 127 127
-0.030853 0.620973 0.460432 127 127 0
-0.311895 -0.843356 -0.138824 127 0 127
-0.333406 0.735778 0.297974 0 127 127
0.671878 0.205530 0.123633 127 127 0
-0.240183 0.735778 0.225418 0 127 127
-0.226800 -0.351677 0.450866 127 127 0
0.527640 0.734904 -0.320981 0 127 127
-0.675542 0.714563 -0.160841 0 127 127
-0.597922 -0.038994 0.026035 127 127 0
0.643702 0.381251 0.258955 127 127 0
-0.334296 -0.843356 -0.274293 127 0 127
-0.360888 0.719717 -0.006218 0 127 127
-0.667288 -0.113842 0.038513 127 127 0
-0.603298 -0.269801 -0.282522 127 127 0
0.396364 0.457022 0.457950 127 127 0
-0.594905 0.495981 -0.276600 127 127 0
-0.060878 0.712200 -0.431073 0 127 127
0.458560 -0.818029 0.335283 127 127 0
0.199163 -0.843356 -0.027429 127 0 127
-0.082514 -0.012881 -0.421530 127 127 0
0.578058 -0.641822 0.192583 127 127 0
0.408405 0.651989 -0.431104 127 127 0
0.168098 -0.579215 0.435546 127 127 0
0.634038 -0.284406 -0.157703 127 127 0
-0.586867 -0.524408 -0.247662 127 127 0
0.025035 -0.127766 0.476745 127 127 0
0.524615 -0.383806 -0.384559 127 127 0
-0.622884 0.185614 -0.309724 127 127 0
0.009184 0.719717 0.101192 0 127 127
0.195967 0.563155 0.447188 127 127 0
-0.657207 -0.223060 0.066458 127 127 0
0.044267 -0.670804 0.429771 127 127 0
0.133146 0.182865 0.427791 127 127 0
-0.333010 0.061054 0.395293 127 127 0
0.518294 0.673530 -0.432757 0 127 127
-0.168483 -0.464698 -0.450818 127 127 0
0.447848 0.339503 -0.393053 127 127 0
0.040215 -0.318368 0.399762 127 127 0
0.578942 -0.144540 0.083198 127 127 0
0.621275 0.564668 0.326870 127 127 0
0.193761 0.580524 -0.451657 127 127 0
-0.353290 -0.743828 0.384624 127 127 0
0.633434 -0.194013 0.190537 127 127 0
0.537035 -0.738437 -0.251604 127 127 0
0.680763 0.219679 -0.054158 127 127 0
0.510944 -0.836705 -0.175822 127 0 127
0.483463 0.446227 0.438603 127 127 0
0.544146 -0.038101 -0.399220 127 127 0
-0.433797 -0.461528 -0.337946 127 127 0
0.243564 0.716196 0.397043 0 127 127
-0.159603 -0.843356 0.142906 127 0 127
-0.155633 -0.618519 -0.435231 127 127 0
-0.275248 0.216948 -0.418329 127 127 0
-0.223290 -0.129286 0.464923 127 127 0
0.671923 0.475177 0.168550 127 127 0
0.547768 0.364809 -0.414838 127 127 0
-0.137293 -0.146169 -0.409616 127 127 0
-0.465504 -0.699252 0.287763 127 127 0
-0.385270 0.142119 -0.394158 127 127 0
-0.650594 0.551764 0.263660 127 127 0
-0.554291 -0.617799 0.290193 127 127 0
-0.339285 -0.412977 -0.433355 127 127 0
0.429236 -0.720851 -0.020401 127 0 127
0.115073 0.735778 0.228397 0 127 127
-0.650981 -0.329824 -0.001948 127 127 0
-0.266491 -0.673914 0.411942 127 127 0
-0.677016 0.099608 -0.082787 127 127 0
0.333984 -0.608160 -0.351194 127 127 0
0.633449 -0.435133 -0.054800 127 127 0
0.671407 0.497688 -0.176615 127 127 0
0.326089 -0.461111 0.359727 127 127 0
-0.494122 0.070523 0.352969 127 127 0
0.634463 0.180234 0.263544 127 127 0
0.138843 0.719717 0.058378 0 127 127
0.266247 0.353750 -0.428135 127 127 0
0.591998 0.327977 0.222581 127 127 0
0.661821 0.102670 0.150661 127 127 0
0.600818 0.284018 0.176872 127 127 0
-0.592765 0.734206 -0.184224 0 127 127
0.085943 -0.468047 -0.391581 127 127 0
0.636716 0.547385 -0.127770 127 127 0
-0.665363 -0.149354 -0.026394 127 127 0
-0.561084 -0.740114 0.183800 127 127 0
-0.173379 0.720212 0.472898 0 127 127
-0.354617 0.735778 -0.124288 0 127 127
-0.614298 -0.034256 -0.301201 127 127 0
-0.044631 -0.720851 0.300029 127 0 127
-0.418757 0.735778 0.017605 0 127 127
-0.567734 -0.191630 -0.369883 127 127 0
0.047677 0.439185 -0.498601 127 127 0
0.445468 0.028828 0.368021 127 127 0
0.204444 0.735778 -0.213474 0 127 127
0.184738 -0.840595 -0.372704 127 127 0
0.153668 -0.488168 -0.385503 127 127 0
-0.570011 0.214832 0.266070 127 127 0
0.205698 0.719717 0.034395 0 127 127
-0.094998 -0.059428 0.478429 127 127 0
-0.654878 0.578138 -0.013565 127 127 0
0.553653 0.734245 -0.284056 0 127 127
-0.147633 -0.714282 0.368611 127 127 0
0.216320 0.719569 -0.472881 0 127 127
-0.295171 -0.720851 -0.018277 127 0 127
0.572574 -0.094680 0.146951 127 127 0
0.120071 -0.508766 -0.449623 127 127 0
0.181283 0.541906 -0.492837 127 127 0
-0.551133 -0.535047 0.052501 127 127 0
0.611995 0.136788 0.315674 127 127 0
-0.260361 0.044200 0.405742 127 127 0
0.426052 -0.569746 -0.330160 127 127 0
0.172289 -0.609731 -0.375652 127 127 0
-0.616198 0.510473 -0.219087 127 127 0
0.580503 -0.184693 -0.018268 127 127 0
-0.049416 0.735778 0.356946 0 127 127
-0.285685 0.572648 -0.481806 127 127 0
-0.397232 -0.278477 0.358326 127 127 0
-0.466004 -0.399614 -0.326707 127 127 0
-0.591620 0.246912 0.214111 127 127 0
-0.346987 0.735542 0.365941 0 127 127
0.615207 -0.162611 0.258578 127 127 0
0.023034 0.659310 -0.544605 0 127 127
-0.256293 -0.843356 0.275923 127 0 127
0.382630 -0.675888 0.391485 127 127 0
-0.593619 0.698970 -0.415178 0 127 127
-0.569523 -0.206602 0.132282 127 127 0
0.364348 0.271560 -0.406340 127 127 0
0.611615 -0.029133 -0.297725 127 127 0
0.374902 -0.070471 0.444699 127 127 0
-0.628247 -0.167138 -0.236628 127 127 0
-0.145352 0.106659 -0.425503 127 127 0
-0.281953 -0.472023 0.367894 127 127 0
-0.469397 -0.843356 0.175899 127 0 127
0.109520 0.727822 -0.454877 0 127 127
-0.105712 -0.720851 0.267160 127 0 127
0.258096 -0.720851 -0.319611 127 0 127
-0.628084 0.290329 -0.026844 127 127 0
-0.231262 -0.226187 0.391724 127 127 0
0.479545 -0.640134 0.265346 127 127 0
-0.126467 0.503334 0.493420 127 127 0
0.415986 0.549307 -0.415240 127 127 0
-0.631067 -0.490976 0.051568 127 127 0
-0.137419 -0.456463 0.450581 127 127 0
0.297169 0.489340 -0.478412 127 127 0
-0.623996 -0.046246 0.270254 127 127 0
0.689549 0.621917 0.071545 127 127 0
-0.018793 0.008855 0.483407 127 127 0
0.011791 -0.205112 -0.475867 127 127 0
0.350815 -0.323083 0.364623 127 127 0
0.460997 0.334780 0.441288 127 127 0
-0.137864 0.731285 -0.436997 0 127 127
-0.222061 0.475541 -0.442379 127 127 0
0.026359 -0.843356 0.302764 127 0 127
-0.002327 -0.755672 -0.417884 127 127 0
0.046552 0.735778 -0.180182 0 127 127
-0.041234 -0.393077 0.459827 127 127 0
0.392409 0.182360 0.391282 127 127 0
0.222278 -0.843356 0.009972 127 0 127
-0.517611 -0.457552 0.228936 127 127 0
0.119072 0.735778 -0.317900 0 127 127
0.374044 -0.556368 -0.345821 127 127 0
-0.563731 -0.496245 0.313756 127 127 0
0.476315 -0.843356 0.012675 127 0 127
0.667011 0.443217 0.186329 127 127 0
0.476702 -0.720851 -0.157087 127 127 0
0.096585 0.718866 -0.396007 0 127 127
0.687892 0.405165 -0.033552 127 127 0
-0.638241 0.107534 -0.258873 127 127 0
-0.459845 0.716334 -0.441082 0 127 127
-0.329693 -0.189123 0.447394 127 127 0
0.561895 0.105356 -0.249338 127 127 0
-0.541260 0.343374 0.417252 127 127 0
0.361380 -0.635394 -0.404617 127 127 0
-0.476462 0.526703 -0.445608 127 127 0
0.670028 0.542519 -0.186217 127 127 0
0.689148 0.475230 0.043936 127 127 0
-0.588013 -0.626395 0.184255 127 127 0
0.385278 0.421912 -0.462407 127 127 0
-0.459743 0.025918 -0.367888 127 127 0
0.625880 0.357898 -0.307853 127 127 0
-0.095608 0.090325 -0.487795 127 127 0
0.409346 -0.575282 -0.402883 127 127 0
-0.419477 0.298560 0.450817 127 127 0
-0.481091 -0.151631 0.339024 127 127 0
0.160217 -0.165319 -0.471920 127 127 0
0.390922 0.598089 -0.423984 127 127 0
0.232498 0.719717 -0.357116 0 127 127
0.634337 0.627786 0.298990 127 127 0
0.506565 -0.421783 -0.257035 127 127 0
-0.504430 -0.814993 -0.268537 127 127 0
-0.218830 0.719717 0.010074 0 127 127
0.138439 -0.720851 0.011719 127 0 127
-0.183355 0.673854 0.489597 0 127 127
-0.498556 -0.088490 0.417300 127 127 0
-0.262406 0.719717 0.166780 0 127 127
-0.136830 0.043224 -0.421907 127 127 0
0.580207 -0.028427 0.139417 127 127 0
-0.374096 -0.190366 -0.372958 127 127 0
-0.455191 -0.322637 0.337313 127 127 0
-0.456014 -0.094070 0.427355 127 127 0
-0.492905 0.735778 -0.268353 0 127 127
0.458897 -0.585753 0.304925 127 127 0
-0.300473 0.356547 0.421018 127 127 0
-0.344892 0.651989 -0.447957 127 127 0
0.651807 -0.027631 0.163654 127 127 0
0.380050 -0.519421 -0.415307 127 127 0
-0.526218 -0.683747 -0.129453 127 0 127
0.080302 -0.381567 -0.462900 127 127 0
-0.292405 0.719717 0.257665 0 127 127
0.137585 -0.441845 0.387053 127 127 0
0.470712 0.282580 0.379816 127 127 0
0.610745 0.225064 -0.105096 127 127 0
0.161224 0.020585 -0.480862 127 127 0
-0.400430 -0.454642 -0.418581 127 127 0
0.333832 0.102616 0.397178 127 127 0
-0.455271 0.639144 -0.451675 127 127 0
-0.522843 0.566470 -0.387039 127 127 0
0.158315 -0.315241 -0.396392 127 127 0
0.647065 0.163533 0.222873 127 127 0
0.521310 -0.803795 0.222126 127 0 127
-0.422124 -0.793958 -0.359909 127 127 0
-0.254545 0.735375 0.386770 0 127 127
-0.520166 -0.647512 0.346716 127 127 0
0.463508 -0.649587 -0.380243 127 127 0
0.304712 -0.274544 -0.448298 127 127 0
-0.202578 -0.843356 -0.148568 127 0 127
0.055725 0.079414 0.425028 127 127 0
0.294358 -0.591174 -0.422016 127 127 0
-0.656108 0.634986 -0.254510 127 127 0
0.459993 -0.141135 0.422950 127 127 0
0.621901 -0.503995 -0.083184 127 127 0
0.476273 0.289552 -0.439815 127 127 0
0.004326 0.719717 0.167539 0 127 127
0.513458 -0.202014 0.288860 127 127 0
0.216990 0.700514 0.448821 0 127 127
0.258390 -0.641044 -0.362535 127 127 0
0.130420 -0.362421 0.458166 127 127 0
-0.690333 0.376909 0.060803 127 127 0
0.470545 0.089952 0.364225 127 127 0
0.464302 -0.690415 0.284767 127 127 0
-0.599861 0.200952 -0.171178 127 127 0
0.632385 0.244958 -0.280315 127 127 0
-0.574976 0.365819 0.289542 127 127 0
-0.475589 0.498030 0.442277 127 127 0
0.551794 0.302463 0.407265 127 127 0
-0.285741 0.516373 -0.481056 127 127 0
-0.003714 0.685821 0.485178 0 127 127
-0.534360 0.717517 -0.308074 0 127 127
0.622388 -0.252409 -0.216140 127 127 0
0.566265 -0.447159 0.312629 127 127 0
-0.422116 0.237618 0.448469 127 127 0
0.200782 0.331117 -0.434575 127 127 0
-0.275752 -0.574955 -0.365040 127 127 0
-0.263843 -0.842687 0.355244 127 127 0
0.640252 -0.227585 0.148359 127 127 0
-0.202864 -0.048092 0.406814 127 127 0
-0.029532 -0.332999 -0.402230 127 127 0
-0.225826 0.639076 -0.489828 127 127 0
0.441554 -0.688083 -0.310345 127 127 0
-0.630408 0.368851 0.085494 127 127 0
-0.691723 0.471110 0.069877 127 127 0
-0.366370 -0.119599 -0.379758 127 127 0
0.590280 -0.029510 -0.079715 127 127 0
0.093783 -0.843356 0.250200 127 0 127
0.552494 -0.489172 -0.023586 127 127 0
-0.479132 -0.841797 0.254717 127 0 127
0.050597 -0.720851 0.024481 127 0 127
-0.255949 -0.789168 0.388724 127 127 0
-0.001813 -0.631461 0.436468 127 127 0
-0.477854 0.586851 -0.446046 127 127 0
-0.629247 0.522478 0.317120 127 127 0
-0.282183 0.688891 -0.513297 0 127 127
0.569317 0.232555 0.391334 127 127 0
0.556458 -0.316018 -0.126814 127 127 0
-0.611678 0.715339 0.066851 0 127 127
-0.506651 0.696973 0.459229 0 127 127
-0.541258 -0.068295 0.266506 127 127 0
0.288511 -0.843356 -0.240088 127 0 127
-0.718153 0.659212 -0.034340 0 127 127
0.430734 0.735778 -0.076507 0 127 127
0.285954 0.580520 0.478098 127 127 0
0.686778 0.502743 -0.081884 127 127 0
0.593775 0.006688 -0.078274 127 127 0
-0.548997 0.177903 0.305595 127 127 0
0.658187 -0.099701 -0.102215 127 127 0
0.652332 0.620960 0.057153 127 127 0
-0.163747 0.659212 0.524385 0 127 127
-0.138204 -0.843356 -0.359621 127 0 127
-0.364733 -0.534406 0.347416 127 127 0
0.290042 -0.234790 -0.452914 127 127 0
-0.559042 0.366025 -0.328687 127 127 0
0.361859 -0.323205 0.432082 127 127 0
0.630465 0.386678 -0.063107 127 127 0
-0.218178 -0.720851 -0.088363 127 0 127
0.458222 0.147957 -0.376489 127 127 0
-0.177780 0.719717 0.095547 0 127 127
-0.366647 0.659212 0.481716 0 127 127
0.373348 0.389643 0.460861 127 127 0
-0.058277 -0.843356 0.200113 127 0 127
-0.571463 -0.612895 0.246829 127 127 0
0.394456 -0.112188 -0.442059 127 127 0
-0.370342 0.729657 0.413383 0 127 127
0.439574 -0.014770 -0.369507 127 127 0
-0.557219 -0.294422 -0.154903 127 127 0
-0.432265 0.659212 0.496517 0 127 127
-0.664584 0.055700 0.146562 127 127 0
0.594054 -0.021619 0.049933 127 127 0
-0.657505 0.700546 0.057596 0 127 127
0.238463 -0.135464 0.462632 127 127 0
-0.458236 -0.720851 0.185367 127 0 127
-0.664807 0.187884 -0.181865 127 127 0
0.649127 0.451636 -0.252104 127 127 0
-0.452702 0.174834 0.439556 127 127 0
-0.605197 0.323043 0.191028 127 127 0
0.380560 -0.219053 0.365314 127 127 0
0.591219 0.119873 -0.156993 127 127 0
0.085776 -0.690220 -0.428450 127 127 0
-0.233696 -0.478273 0.374475 127 127 0
-0.638220 0.306780 0.280245 127 127 0
0.439983 0.643732 -0.416547 127 127 0
-0.484902 -0.720851 0.046885 127 0 127
0.552505 -0.062168 0.226570 127 127 0
0.328133 -0.063186 0.453646 127 127 0
-0.160428 0.735778 0.039644 0 127 127
0.637128 0.458470 0.059454 127 127 0
0.251319 -0.166570 0.392245 127 127 0
-0.644046 -0.190617 -0.170447 127 127 0
0.319269 -0.720851 -0.181340 127 0 127
-0.565897 -0.043943 -0.385136 127 127 0
0.212860 -0.454902 0.378346 127 127 0
-0.552284 0.455869 -0.352852 127 127 0
-0.434426 -0.560678 -0.329232 127 127 0
-0.555468 0.041552 -0.262461 127 127 0
0.106253 0.220252 0.488126 127 127 0
0.025438 0.397990 -0.498270 127 127 0
0.172907 -0.720851 0.152063 127 0 127
0.164436 0.429865 0.489653 127 127 0
-0.155533 0.735778 -0.029690 0 127 127
-0.587389 0.130069 0.189070 127 127 0
0.081893 -0.071805 0.478342 127 127 0
-0.102837 0.735778 -0.066821 0 127 127
0.140051 -0.652073 -0.431167 127 127 0
-0.193145 -0.176176 -0.468489 127 127 0
-0.232810 0.199188 0.477589 127 127 0
0.095018 -0.089686 0.412430 127 127 0
-0.189439 0.719717 -0.014490 0 127 127
-0.013409 0.719717 0.206757 0 127 127
-0.499305 0.023513 0.344874 127 127 0
0.177306 0.208544 0.482972 127 127 0
0.354295 -0.843356 0.063739 127 0 127
0.685176 0.282119 -0.004020 127 127 0
0.336748 -0.655742 0.344065 127 127 0
-0.589729 0.719223 -0.033666 0 127 127
0.399806 0.080129 -0.449854 127 127 0
-0.092770 0.584035 -0.499570 127 127 0
0.702244 0.659212 0.144214 0 127 127
0.676074 0.083768 -0.010880 127 127 0
0.616041 -0.213234 -0.247785 127 127 0
-0.447753 -0.501311 -0.403365 127 127 0
-0.556368 0.729016 0.353132 0 127 127
0.324858 -0.843356 -0.242411 127 0 127
-0.507774 -0.688366 0.193089 127 127 0
0.473536 -0.843356 -0.048425 127 0 127
0.477525 -0.841320 0.251220 127 0 127
-0.636128 -0.377707 -0.124175 127 127 0
0.495697 -0.495662 0.385732 127 127 0
-0.567681 0.156138 0.256696 127 127 0
0.137371 -0.843356 -0.310602 127 0 127
0.374113 0.371891 -0.411468 127 127 0
0.619522 0.279363 -0.072410 127 127 0
0.077903 -0.832856 -0.388182 127 127 0
-0.568632 -0.054618 -0.196578 127 127 0
0.394832 0.733986 -0.383453 0 127 127
0.358245 -0.720851 0.025250 127 0 127
-0.495631 0.193958 -0.366953 127 127 0
-0.006548 -0.053185 0.417573 127 127 0
0.105401 -0.266310 0.400372 127 127 0
-0.410660 -0.483761 0.410350 127 127 0
0.265281 0.512140 0.480141 127 127 0
-0.261541 -0.641918 0.417427 127 127 0
0.476992 -0.529409 -0.392189 127 127 0
-0.128771 0.320421 0.489741 127 127 0
0.505897 0.725607 -0.401031 0 127 127
-0.009216 -0.532662 -0.451128 127 127 0
-0.600303 0.149227 -0.147628 127 127 0
-0.582521 0.635639 -0.398433 127 127 0
0.003040 -0.161511 -0.413694 127 127 0
0.335018 0.636369 0.471474 127 127 0
0.604086 -0.615753 -0.085466 127 127 0
-0.192410 -0.720851 0.225782 127 0 127
-0.197960 0.330692 -0.435285 127 127 0
0.244842 0.047751 -0.410640 127 127 0
-0.538586 0.070435 0.304612 127 127 0
-0.485289 -0.485496 0.294436 127 127 0
-0.155793 0.383666 0.439706 127 127 0
-0.531530 0.074798 0.412140 127 127 0
-0.516959 -0.701359 -0.160689 127 0 127
-0.007378 0.055884 0.424569 127 127 0
0.276206 0.735778 -0.361771 0 127 127
0.683653 0.443263 0.094342 127 127 0
-0.259467 0.735778 0.053683 0 127 127
-0.120942 -0.715015 -0.422271 127 127 0
-0.325715 -0.843356 0.068166 127 0 127
0.313235 -0.109138 0.453575 127 127 0
0.728944 0.672084 0.084325 0 127 127
-0.678829 0.720162 0.010591 0 127 127
-0.560766 0.459270 0.339586 127 127 0
-0.639009 0.593002 -0.300690 127 127 0
0.520194 -0.192117 0.400240 127 127 0
0.506746 -0.843356 0.062235 127 0 127
0.606430 0.383834 -0.194169 127 127 0
0.498820 -0.601717 0.229454 127 127 0
-0.117188 0.719717 0.074363 0 127 127
0.550707 -0.073280 0.388997 127 127 0
-0.541306 -0.517058 0.128627 127 127 0
0.300194 0.046627 0.462598 127 127 0
0.533920 0.721971 0.397522 0 127 127
0.552103 -0.222724 -0.181986 127 127 0
0.396299 0.697022 0.428513 0 127 127
0.025234 0.562562 -0.500900 127 127 0
0.080018 -0.720851 -0.201777 127 0 127
0.532310 -0.828576 -0.117107 127 0 127
0.312741 0.410549 0.471705 127 127 0
0.038738 0.456559 0.449614 127 127 0
-0.591542 -0.110441 -0.341042 127 127 0
0.683246 0.573136 0.119646 127 127 0
-0.680007 0.270618 0.118548 127 127 0
0.592404 -0.428726 0.251489 127 127 0
0.615676 0.361897 0.328391 127 127 0
0.271098 -0.843356 -0.112846 127 0 127
-0.659872 0.518263 -0.238241 127 127 0
0.526884 -0.312530 -0.389897 127 127 0
0.584799 -0.117725 0.053922 127 127 0
-0.553009 0.576075 0.415705 127 127 0
-0.023120 -0.811249 0.397962 127 127 0
0.679358 0.160901 -0.023775 127 127 0
-0.057328 0.531824 -0.499934 127 127 0
-0.288736 -0.301449 -0.449477 127 127 0
0.333128 -0.497599 -0.359028 127 127 0
0.463564 -0.840860 -0.292145 127 0 127
0.497049 -0.658746 -0.221841 127 127 0
0.618523 0.234141 -0.024143 127 127 0
-0.209675 0.735778 0.194756 0 127 127
-0.067261 -0.843356 -0.287560 127 0 127
-0.648925 0.419664 -0.263048 127 127 0
-0.320937 0.719717 -0.030202 0 127 127
0.577153 -0.108524 0.357350 127 127 0
-0.536067 0.272382 0.342546 127 127 0
0.265528 -0.843356 0.224675 127 0 127
-0.624014 0.402674 0.144023 127 127 0
0.150745 0.715571 -0.412418 0 127 127
-0.394063 -0.759555 0.373142 127 127 0
0.264511 0.317917 0.422870 127 127 0
-0.488157 0.325019 -0.439030 127 127 0
-0.382245 0.719717 -0.163838 0 127 127
0.616041 0.551667 0.214287 127 127 0
0.679527 0.329975 -0.104816 127 127 0
0.433498 0.027243 -0.440334 127 127 0
0.427899 0.735778 -0.188596 0 127 127
-0.593479 -0.211865 0.315198 127 127 0
0.581105 0.719268 -0.077305 0 127 127
-0.680513 0.550982 0.155357 127 127 0
0.469998 -0.130042 0.344982 127 127 0
-0.233747 -0.843356 -0.206102 127 0 127
0.035453 0.335284 -0.496700 127 127 0
0.381563 -0.428767 0.350119 127 127 0
0.159767 -0.720851 -0.061289 127 0 127
-0.333883 -0.307001 0.369755 127 127 0
0.598828 0.500859 0.250947 127 127 0
0.197098 -0.720851 0.353573 127 127 0
0.163242 -0.843356 -0.021809 127 0 127
0.339693 -0.843356 -0.112174 127 0 127
-0.315614 -0.198694 0.380571 127 127 0
0.621360 -0.492500 0.097492 127 127 0
0.671838 0.400940 0.159171 127 127 0
0.489838 0.719717 -0.195645 0 127 127
-0.033375 0.246129 -0.494535 127 127 0
0.479161 0.693303 -0.419865 0 127 127
0.646365 -0.271080 -0.087906 127 127 0
-0.304866 0.719717 -0.133543 0 127 127
0.574398 0.495764 0.310467 127 127 0
-0.213639 -0.843356 0.014524 127 0 127
0.095588 0.492637 0.450100 127 127 0
-0.200757 -0.178293 -0.401581 127 127 0
-0.553777 0.213234 -0.305922 127 127 0
-0.229630 -0.720851 0.248325 127 0 127
0.445419 0.458025 0.398957 127 127 0
-0.355383 0.624946 -0.433181 127 127 0
0.129681 0.687734 0.478076 0 127 127
0.544619 -0.009888 0.261926 127 127 0
-0.263656 0.318158 -0.426754 127 127 0
-0.176483 -0.080055 -0.475221 127 127 0
-0.066696 -0.363511 0.461526 127 127 0
-0.082614 -0.082525 -0.481067 127 127 0
0.192426 -0.843356 -0.083676 127 0 127
0.647524 0.437778 0.252469 127 127 0
0.047137 -0.227212 0.405485 127 127 0
-0.004916 -0.628868 0.380593 127 127 0
0.638201 0.537454 0.112225 127 127 0
0.618012 0.708463 -0.159776 0 127 127
-0.608084 0.215102 -0.139155 127 127 0
-0.586928 -0.627491 -0.190623 127 127 0
0.563581 -0.313849 -0.353102 127 127 0
0.669608 0.345121 0.162036 127 127 0
-0.457573 -0.795065 -0.351065 127 127 0
0.044802 -0.843356 -0.103235 127 0 127
0.593632 0.670203 0.381768 0 127 127
-0.141941 0.733156 0.421347 0 127 127
-0.643986 0.463956 0.022534 127 127 0
-0.019532 -0.843356 -0.105832 127 0 127
-0.053371 -0.098987 0.477716 127 127 0
-0.405182 -0.299952 -0.358100 127 127 0
0.440845 -0.053553 -0.434942 127 127 0
0.554392 -0.472104 0.011640 127 127 0
-0.089096 0.735778 0.264848 0 127 127
0.199585 0.651989 -0.473908 127 127 0
0.171286 0.147983 -0.425508 127 127 0
-0.193734 0.557555 -0.450606 127 127 0
-0.141683 0.735778 0.381249 0 127 127
-0.309671 0.486054 0.428403 127 127 0
0.129034 -0.135614 0.472301 127 127 0
0.239881 -0.720851 0.292220 127 0 127
-0.352922 0.104979 -0.460275 127 127 0
-0.307446 -0.682977 0.404645 127 127 0
0.666668 0.699146 0.267665 0 127 127
-0.552386 0.215361 -0.409729 127 127 0
0.135554 -0.079305 -0.477854 127 127 0
0.067711 0.009741 -0.485485 127 127 0
-0.539043 -0.210288 0.390413 127 127 0
0.619264 -0.312771 0.204469 127 127 0
-0.468657 -0.532197 0.392246 127 127 0
0.383462 -0.720851 -0.248170 127 0 127
0.377915 0.698193 -0.432748 0 127 127
0.648060 0.551351 0.006276 127 127 0
0.608283 0.167638 -0.080764 127 127 0
0.591362 0.732077 -0.231609 0 127 127
-0.660947 -0.177979 0.064725 127 127 0
0.517925 -0.802035 -0.237247 127 127 0
-0.616115 0.702605 0.236812 0 127 127
-0.566802 -0.772507 -0.108769 127 127 0
0.026764 0.102512 0.427090 127 127 0
0.523300 -0.467863 -0.200321 127 127 0
-0.091813 0.735778 0.379725 0 127 127
0.386731 -0.720851 0.300236 127 0 127
-0.085645 -0.216287 -0.473784 127 127 0
-0.184303 0.719717 -0.076819 0 127 127
-0.208953 -0.601665 -0.432178 127 127 0
-0.026080 0.716000 0.489954 0 127 127
-0.529324 0.152487 -0.419691 127 127 0
-0.404483 -0.652588 0.391227 127 127 0
-0.676152 0.001126 0.003314 127 127 0
0.669857 0.672669 -0.321422 0 127 127
0.400383 -0.627447 0.331447 127 127 0
0.052544 0.730274 -0.446167 0 127 127
-0.568421 0.145841 -0.394970 127 127 0
-0.691635 0.345720 0.005585 127 127 0
0.571597 0.161204 -0.388830 127 127 0
0.658676 0.651989 -0.086326 127 127 0
-0.684988 0.323040 -0.094840 127 127 0
-0.217281 0.719717 0.308207 0 127 127
0.370086 -0.432621 0.422170 127 127 0
0.574869 0.735778 0.030845 0 127 127
0.654546 0.651989 -0.150588 127 127 0
0.007384 -0.098410 -0.417664 127 127 0
-0.650069 -0.097292 0.172183 127 127 0
-0.473419 -0.720851 -0.250295 127 127 0
0.071983 0.200982 -0.492386 127 127 0
0.574307 0.719306 -0.121105 0 127 127
0.214324 -0.843356 0.051529 127 0 127
-0.239577 0.581943 -0.487904 127 127 0
0.595317 -0.497567 0.216138 127 127 0
0.061967 -0.276187 0.402041 127 127 0
-0.140163 -0.257439 0.399134 127 127 0
-0.593957 0.120393 -0.364752 127 127 0
0.118678 -0.060263 0.412917 127 127 0
-0.528769 -0.387205 -0.384447 127 127 0
0.075089 0.535372 -0.499540 127 127 0
0.081361 -0.843356 -0.351333 127 0 127
-0.283309 -0.298229 0.447343 127 127 0
0.597607 0.077219 -0.101174 127 127 0
0.590781 0.273808 -0.373548 127 127 0
-0.659020 0.310162 0.217599 127 127 0
0.346893 0.321953 0.409908 127 127 0
-0.087363 -0.239140 0.469194 127 127 0
-0.112024 0.480822 -0.497073 127 127 0
-0.152598 -0.030677 -0.416107 127 127 0
0.346640 -0.720851 0.254257 127 0 127
-0.485302 -0.534048 -0.289082 127 127 0
-0.164392 -0.720114 -0.369651 127 127 0
-0.318224 0.727342 -0.435499 0 127 127
0.347495 -0.139370 0.446151 127 127 0
-0.437761 0.456073 0.401578 127 127 0
0.116111 -0.720851 -0.042384 127 0 127
0.256482 -0.418505 -0.444699 127 127 0
-0.024933 0.126767 0.428776 127 127 0
0.570404 -0.735251 0.127552 127 127 0
-0.525355 -0.144810 -0.406255 127 127 0
-0.606151 -0.156612 0.296587 127 127 0
0.511694 -0.241177 -0.286967 127 127 0
0.438757 0.202187 -0.445719 127 127 0
0.266325 -0.485240 0.434325 127 127 0
-0.168872 -0.374703 -0.458164 127 127 0
0.164650 0.735778 -0.242136 0 127 127
-0.260224 -0.720851 0.232733 127 0 127
0.460846 0.735778 -0.100334 0 127 127
-0.624695 -0.138379 0.249937 127 127 0
-0.122003 0.569653 0.494574 127 127 0
0.234262 0.735778 0.189236 0 127 127
-0.565514 -0.373177 0.056817 127 127 0
-0.504122 -0.691718 0.350947 127 127 0
-0.187384 -0.571351 0.374007 127 127 0
0.374422 0.648960 -0.467481 0 127 127
-0.440604 0.028082 0.370388 127 127 0
0.634382 -0.103993 -0.215148 127 127 0
0.556526 -0.056238 -0.219953 127 127 0
-0.461161 0.367875 -0.393091 127 127 0
0.099823 -0.027700 -0.482390 127 127 0
-0.614019 0.133769 0.017725 127 127 0
0.648307 0.647868 0.113162 127 127 0
-0.603619 -0.468840 -0.219168 127 127 0
-0.398866 -0.610215 -0.401707 127 127 0
-0.324712 0.659212 0.495559 0 127 127
-0.094336 0.123882 -0.489094 127 127 0
-0.415617 -0.651888 -0.329279 127 127 0
-0.290528 0.010051 -0.402295 127 127 0
0.543348 -0.450038 0.126919 127 127 0
-0.628793 -0.457503 -0.114385 127 127 0
-0.543113 0.735778 0.014220 0 127 127
0.144189 0.735778 0.359831 0 127 127
0.552865 0.659212 -0.460582 0 127 127
-0.232931 0.716371 -0.401095 0 127 127
0.569363 -0.765603 0.066333 127 127 0
-0.633808 -0.269368 -0.185402 127 127 0
0.628822 -0.424810 -0.107654 127 127 0
-0.039409 0.729353 0.448304 0 127 127
-0.382609 0.719717 -0.043668 0 127 127
0.029245 0.584640 -0.461144 127 127 0
-0.566516 0.489867 -0.408706 127 127 0
0.618881 -0.414425 -0.168706 127 127 0
0.131274 0.500756 -0.495929 127 127 0
0.096906 0.735778 0.326461 0 127 127
-0.646021 0.485157 -0.023064 127 127 0
0.246971 0.227420 0.419280 127 127 0
0.355412 0.255614 -0.463912 127 127 0
0.625318 0.710511 -0.329234 0 127 127
-0.441599 -0.705321 -0.311570 127 127 0
-0.039587 -0.726436 -0.423328 127 127 0
-0.391142 -0.320407 0.427748 127 127 0
-0.299224 -0.680754 -0.353444 127 127 0
-0.359089 -0.156384 0.375522 127 127 0
-0.477795 0.684248 -0.434328 0 127 127
-0.138639 0.575533 -0.456264 127 127 0
-0.565022 0.735778 -0.130431 0 127 127
0.382538 -0.042585 -0.380567 127 127 0
-0.116237 0.651989 0.474227 127 127 0
-0.562168 -0.087704 0.205049 127 127 0
-0.262597 -0.771838 -0.395614 127 127 0
-0.250932 0.390356 -0.433395 127 127 0
0.599329 0.219585 0.159899 127 127 0
-0.281716 0.735778 0.201476 0 127 127
-0.336693 -0.237584 -0.377134 127 127 0
0.333525 -0.119020 0.381952 127 127 0
0.452368 0.707196 -0.395686 0 127 127
-0.542167 -0.364073 0.373598 127 127 0
0.393223 0.719717 -0.197071 0 127 127
-0.523460 0.405211 0.426872 127 127 0
0.484749 0.325892 -0.381330 127 127 0
0.174527 0.305268 -0.435512 127 127 0
-0.006928 -0.338756 0.464443 127 127 0
-0.574794 -0.026084 0.180841 127 127 0
-0.692793 0.414101 0.027030 127 127 0
-0.638146 0.475312 -0.297560 127 127 0
-0.669560 -0.042396 0.073255 127 127 0
-0.362304 -0.720851 -0.299707 127 0 127
0.464421 0.200522 0.375468 127 127 0
-0.225973 0.054521 -0.476205 127 127 0
0.656148 0.726155 -0.009318 0 127 127
0.543216 -0.513594 -0.100156 127 127 0
0.204904 -0.529641 -0.377564 127 127 0
0.398016 0.073019 0.446790 127 127 0
-0.273690 0.473698 0.479042 127 127 0
0.457210 -0.720851 0.089904 127 0 127
0.032323 -0.105805 0.413586 127 127 0
-0.548798 -0.108384 -0.240215 127 127 0
0.378029 -0.843356 0.182908 127 0 127
-0.559386 -0.142223 -0.383277 127 127 0
-0.534771 -0.329987 0.382898 127 127 0
-0.613183 0.560006 -0.242627 127 127 0
-0.337303 -0.458582 0.426744 127 127 0
0.213700 0.040877 -0.414219 127 127 0
-0.090256 -0.548630 0.444359 127 127 0
-0.465528 0.735778 -0.134274 0 127 127
0.643550 0.533917 -0.066997 127 127 0
0.449209 0.711641 0.449285 0 127 127
0.441861 0.506470 -0.452117 127 127 0
0.494172 0.478156 0.387153 127 127 0
0.631441 0.384633 0.042407 127 127 0
0.540744 -0.577555 -0.072409 127 127 0
-0.572801 0.413403 -0.308594 127 127 0
-0.103775 -0.843356 0.173659 127 0 127
-0.419554 -0.271390 -0.428266 127 127 0
-0.045986 -0.237836 0.470247 127 127 0
0.568587 0.710187 0.292162 0 127 127
0.322164 -0.258031 0.374449 127 127 0
0.395671 0.719717 -0.025388 0 127 127
-0.441618 0.632083 -0.416372 127 127 0
-0.223910 0.735778 0.336711 0 127 127
-0.472749 0.097694 0.432243 127 127 0
0.505487 0.305569 0.366370 127 127 0
0.476747 -0.701819 0.257517 127 127 0
0.089261 -0.473647 0.387915 127 127 0
-0.689150 0.596981 -0.114408 127 127 0
0.270444 -0.843356 -0.352665 127 0 127
0.368240 0.184305 0.456298 127 127 0
-0.327308 0.522637 -0.475271 127 127 0
-0.422548 0.418236 -0.455973 127 127 0
0.130658 0.537773 -0.496489 127 127 0
0.640983 0.220250 0.250066 127 127 0
0.535471 0.614042 0.378414 127 127 0
0.017425 -0.063699 -0.419696 127 127 0
-0.555427 0.316072 0.408304 127 127 0
-0.304866 -0.707673 -0.403722 127 127 0
-0.627031 0.222187 -0.303885 127 127 0
0.272956 0.735778 -0.268669 0 127 127
-0.103788 0.735778 0.033570 0 127 127
0.228326 0.247970 0.478990 127 127 0
-0.171015 0.719717 -0.289920 0 127 127
0.033000 0.455028 0.496086 127 127 0
0.468581 -0.470152 -0.400631 127 127 0
-0.126804 0.295458 0.435733 127 127 0
0.650813 0.716044 0.225639 0 127 127
0.651805 -0.218157 0.077262 127 127 0
0.347023 0.044670 -0.393871 127 127 0
-0.511170 0.491970 0.433018 127 127 0
-0.625730 0.260155 -0.016434 127 127 0
-0.463013 0.719717 0.078133 0 127 127
0.635445 -0.431371 0.010635 127 127 0
0.113470 -0.720851 -0.141039 127 0 127
-0.482453 0.708785 -0.385114 0 127 127
-0.517171 -0.543221 0.206561 127 127 0
-0.078058 0.196473 -0.435304 127 127 0
-0.506397 0.719717 0.307196 0 127 127
0.597613 0.225864 -0.171473 127 127 0
0.141046 0.469322 0.445865 127 127 0
0.148715 -0.843356 0.116386 127 0 127
-0.689852 0.541265 0.097927 127 127 0
-0.560574 0.659212 -0.439527 0 127 127
-0.090876 0.254769 0.490310 127 127 0
-0.367239 0.642247 -0.469563 127 127 0
0.467814 0.714135 -0.442903 0 127 127
0.434808 -0.843356 0.204426 127 0 127
-0.367444 0.735778 0.068340 0 127 127
0.347604 0.719717 0.093130 0 127 127
0.354716 0.693714 0.442048 0 127 127
0.598060 0.644734 0.290725 127 127 0
-0.683316 0.659212 0.245070 0 127 127
0.627975 0.331969 0.007588 127 127 0
-0.586401 0.094737 0.180390 127 127 0
0.574774 0.708591 -0.293328 0 127 127
-0.276082 0.659212 0.502796 0 127 127
-0.314956 0.060611 0.461707 127 127 0
0.123251 0.533534 0.451090 127 127 0
-0.440492 -0.843356 0.203281 127 0 127
0.496994 -0.720851 0.033882 127 0 127
0.522729 -0.004343 0.311947 127 127 0
0.542525 -0.320320 0.179983 127 127 0
-0.605924 -0.570487 0.148707 127 127 0
-0.106626 -0.611406 -0.439060 127 127 0
0.225798 -0.214554 -0.462575 127 127 0
-0.665539 0.685155 -0.173675 0 127 127
-0.087598 0.184517 0.488439 127 127 0
-0.047994 -0.140622 -0.414231 127 127 0
-0.579585 -0.008731 0.370304 127 127 0
0.346690 0.711643 0.400185 0 127 127
-0.563862 -0.496710 -0.316421 127 127 0
-0.566240 -0.787094 0.064173 127 127 0
-0.223907 -0.703435 -0.415461 127 127 0
0.492831 -0.151144 0.414185 127 127 0
0.662439 -0.139898 -0.002536 127 127 0
0.494562 0.735778 -0.136897 0 127 127
-0.141904 -0.447649 0.386694 127 127 0
0.018161 0.735778 0.258545 0 127 127
0.485905 0.735778 -0.056637 0 127 127
0.528553 0.177636 -0.418875 127 127 0
-0.349498 -0.720851 -0.144710 127 0 127
-0.588766 -0.310784 0.305404 127 127 0
0.035133 -0.192312 0.473017 127 127 0
-0.512095 -0.620939 -0.363584 127 127 0
-0.376828 -0.252950 -0.437969 127 127 0
-0.536722 0.487665 -0.425920 127 127 0
0.241860 -0.072651 -0.402987 127 127 0
-0.167787 -0.843356 0.359643 127 127 0
0.507856 0.229680 0.426191 127 127 0
0.575909 -0.233258 0.019269 127 127 0
0.630801 -0.012008 0.244392 127 127 0
0.299926 -0.069474 0.391525 127 127 0
-0.385499 -0.427955 -0.353419 127 127 0
-0.195268 0.719717 -0.135962 0 127 127
0.541694 -0.575545 0.062703 127 127 0
-0.513903 -0.642971 0.188293 127 127 0
-0.594190 0.217589 -0.197734 127 127 0
-0.572895 -0.261134 0.350538 127 127 0
-0.397515 0.186120 -0.454932 127 127 0
0.052983 0.634026 -0.501022 127 127 0
0.618267 0.312288 -0.321670 127 127 0
0.276115 0.615913 -0.444320 127 127 0
-0.410265 0.719717 0.079804 0 127 127
0.504674 -0.712942 -0.342293 127 127 0
0.430900 -0.827479 -0.342510 127 127 0
-0.491117 -0.365858 0.305033 127 127 0
0.022015 -0.682743 -0.431425 127 127 0
-0.313782 0.431361 0.424154 127 127 0
-0.107530 0.055358 -0.424449 127 127 0
0.348181 0.735778 -0.297214 0 127 127
0.293997 0.735778 -0.002742 0 127 127
0.140765 -0.720851 0.130354 127 0 127
0.498675 -0.720851 -0.020719 127 0 127
0.423414 0.263331 -0.451023 127 127 0
-0.098069 -0.008198 -0.483636 127 127 0
0.190495 -0.551310 -0.439526 127 127 0
-0.095163 -0.544616 0.383238 127 127 0
0.015511 0.327509 -0.444886 127 127 0
-0.448184 -0.638816 -0.386557 127 127 0
0.635688 0.503714 -0.293316 127 127 0
-0.108166 -0.843356 -0.073334 127 0 127
-0.104023 0.735576 -0.395445 0 127 127
0.390851 -0.720851 0.028437 127 0 127
-0.445742 -0.843356 -0.208125 127 0 127
0.586084 0.166844 0.190040 127 127 0
0.510495 -0.354777 -0.263505 127 127 0
-0.014740 0.437471 0.448955 127 127 0
0.355691 -0.715915 0.335482 127 127 0
0.029110 -0.438494 -0.459487 127 127 0
-0.293384 -0.720851 0.042049 127 0 127
0.601497 -0.089822 -0.311364 127 127 0
-0.062482 -0.466692 0.453330 127 127 0
0.646599 0.722972 -0.175411 0 127 127
0.664370 -0.096417 0.028098 127 127 0
0.591037 -0.288822 -0.297721 127 127 0
-0.598791 0.018428 -0.083443 127 127 0
-0.442976 -0.720851 0.258687 127 0 127
-0.558518 -0.281830 0.151422 127 127 0
0.632271 0.673381 -0.304845 0 127 127
0.554448 -0.289304 0.146913 127 127 0
0.578070 0.281504 0.385494 127 127 0
0.631103 -0.418488 0.090880 127 127 0
0.255844 0.675734 -0.525223 0 127 127
-0.512674 0.364532 -0.373603 127 127 0
0.015693 -0.080132 -0.482430 127 127 0
-0.687808 0.469327 -0.106486 127 127 0
0.647231 0.069056 -0.207834 127 127 0
-0.316642 -0.843356 0.300215 127 0 127
0.328779 0.033415 0.457886 127 127 0
-0.482358 -0.150375 0.418397 127 127 0
0.661749 0.723688 -0.064082 0 127 127
-0.150515 0.719717 0.319666 0 127 127
0.288458 0.677576 0.473602 0 127 127
-0.654351 0.620068 0.078178 127 127 0
0.343756 -0.390914 -0.364436 127 127 0
-0.544379 0.101928 0.298630 127 127 0
-0.625927 0.400021 -0.135984 127 127 0
0.312973 0.425349 -0.475061 127 127 0
0.175763 -0.720851 -0.024348 127 0 127
0.225940 0.579895 -0.488798 127 127 0
-0.665422 0.117195 0.159196 127 127 0
-0.549475 -0.678545 -0.274268 127 127 0
-0.327365 0.172724 -0.407135 127 127 0
0.271902 0.735778 -0.123095 0 127 127
0.053685 0.525161 0.453727 127 127 0
-0.364423 0.708189 -0.476477 0 127 127
-0.060950 -0.505856 -0.390490 127 127 0
-0.680467 0.363240 -0.135625 127 127 0
0.660370 0.666311 0.236951 0 127 127
0.534438 -0.494934 0.358530 127 127 0
0.016014 0.271285 -0.495511 127 127 0
0.070088 0.323052 0.492614 127 127 0
0.687543 0.369977 0.014771 127 127 0
0.307061 -0.334169 0.440827 127 127 0
-0.649972 0.520729 -0.004827 127 127 0
0.340632 -0.043018 -0.455386 127 127 0
0.208168 -0.720851 0.063223 127 0 127
-0.466029 -0.720851 -0.216705 127 0 127
0.631334 -0.370834 0.125867 127 127 0
-0.670052 0.221310 0.159702 127 127 0
0.447255 -0.843356 -0.135598 127 0 127
-0.176279 0.398710 0.488329 127 127 0
0.686623 0.558987 -0.092763 127 127 0
0.403914 0.735778 0.084092 0 127 127
0.508558 -0.236606 0.402733 127 127 0
-0.653660 0.651989 0.208135 127 127 0
0.131045 0.735778 -0.116372 0 127 127
-0.634891 -0.454773 0.061651 127 127 0
-0.117343 0.735778 -0.256551 0 127 127
0.689457 0.446358 0.017806 127 127 0
-0.210789 -0.641617 -0.369864 127 127 0
0.530025 0.735778 -0.161074 0 127 127
-0.278983 -0.416538 0.439213 127 127 0
-0.614963 0.032034 -0.309293 127 127 0
-0.675675 0.661941 -0.204908 0 127 127
0.099638 -0.677224 0.426779 127 127 0
0.426480 -0.557837 0.397890 127 127 0
0.334142 0.735778 0.034483 0 127 127
-0.264091 0.149404 0.472194 127 127 0
0.445955 0.135475 0.438668 127 127 0
0.018027 0.217538 -0.437765 127 127 0
-0.384429 0.526299 0.462022 127 127 0
-0.663775 -0.043532 -0.123293 127 127 0
0.221857 -0.012922 -0.473323 127 127 0
-0.114006 0.719717 -0.345975 0 127 127
-0.592297 0.051806 0.138997 127 127 0
0.015544 0.719717 -0.180337 0 127 127
0.072467 -0.720851 -0.005903 127 0 127
-0.582120 -0.144916 -0.097723 127 127 0
0.203571 0.133931 0.477871 127 127 0
0.319556 -0.839945 -0.355640 127 0 127
-0.402005 0.716224 -0.453916 0 127 127
-0.091015 0.710546 0.499463 0 127 127
-0.035443 -0.333023 0.399005 127 127 0
0.537441 -0.812462 -0.147572 127 0 127
-0.292789 0.354816 -0.425095 127 127 0
-0.136682 0.280742 0.488307 127 127 0
0.274071 -0.627706 0.417127 127 127 0
0.276949 0.012250 0.464471 127 127 0
-0.631769 -0.045255 -0.251588 127 127 0
0.010621 0.524905 -0.500678 127 127 0
-0.491632 -0.650033 -0.248901 127 127 0
-0.034717 -0.033925 -0.421355 127 127 0
-0.291383 -0.770378 0.388832 127 127 0
-0.689834 0.611358 0.107025 127 127 0
0.376289 -0.843356 0.091340 127 0 127
-0.504768 0.735778 0.090605 0 127 127
0.340474 0.719717 0.288951 0 127 127
0.203179 0.717669 0.393624 0 127 127
-0.516820 0.205528 0.351625 127 127 0
