ply
format ascii 1.0
element vertex 1276
property float x
property float y
property float z
property uchar red
property uchar green
property uchar blue
end_header
0.613374 -0.638153 0.214731 153 76 0
-0.404888 -0.441976 -0.288464 0 0 255
0.778378 0.055752 -0.277402 153 0 76
0.653061 0.559357 -0.311868 76 153 0
0.318605 0.392970 0.249837 153 0 76
-0.077835 -0.310650 0.284944 0 127 127
0.222731 -0.333100 -0.270911 0 0 255
-0.423737 0.021771 -0.288464 76 0 153
-0.742908 0.440155 -0.044112 204 51 127
0.179027 0.623600 -0.294757 76 153 0
-0.057119 -0.006715 -0.270911 0 0 255
0.706944 -0.164792 -0.288464 0 0 255
-0.527071 -0.448022 0.267391 0 127 127
-0.026815 -0.616833 -0.151414 255 0 0
-0.742908 0.044442 -0.086018 204 51 127
0.437315 0.600195 0.118645 0 255 0
-0.371288 -0.488274 0.249837 0 127 127
0.223951 -0.616833 -0.044627 255 0 0
0.600735 -0.056643 0.249837 153 0 76
0.560975 0.283844 0.249837 153 0 76
-0.719504 -0.512786 -0.195141 204 51 127
-0.745833 0.270333 0.255538 0 127 127
-0.727324 0.623600 0.225173 0 127 127
-0.349147 -0.347627 -0.288464 0 0 255
0.293063 0.517277 0.284944 153 0 76
0.754973 -0.393851 -0.230195 153 0 76
-0.742908 0.147524 0.017762 204 51 127
0.308397 -0.630322 -0.288464 153 0 76
-0.155555 0.513960 -0.270911 0 0 255
0.342264 0.623600 -0.294870 76 153 0
0.441723 -0.216198 -0.270911 0 0 255
-0.445979 -0.593429 -0.036182 255 0 0
-0.017972 -0.025872 0.191682 76 0 153
-0.423332 -0.577778 -0.270911 0 0 255
-0.168651 0.009234 0.059780 76 0 153
0.348951 0.232153 -0.270911 0 0 255
0.754973 0.137733 0.191326 153 0 76
-0.526745 0.576791 0.102133 0 255 0
0.125105 0.357559 -0.270911 0 0 255
0.612291 0.347728 0.249837 153 0 76
-0.676044 0.576791 0.086730 0 255 0
0.092381 0.299162 0.284944 153 0 76
-0.120901 0.600195 -0.020433 0 255 0
0.332044 0.593130 0.214731 76 0 153
0.754973 -0.348215 0.024608 153 0 76
-0.226263 0.576791 -0.159725 0 255 0
-0.265593 -0.301308 0.249837 0 127 127
0.569366 -0.318556 -0.288464 0 0 255
0.236885 0.009234 0.109307 76 0 153
0.240944 -0.025872 -0.061942 76 0 153
-0.754610 -0.577259 0.238865 0 127 127
0.014327 0.037262 0.249837 127 0 127
0.087434 -0.447042 -0.270911 0 0 255
-0.473797 -0.579695 0.284944 0 127 127
0.424032 0.401260 -0.288464 0 0 255
0.660156 0.054783 -0.311868 76 0 153
-0.719504 -0.331681 0.100732 204 51 127
0.713851 0.413456 0.249837 153 0 76
0.645606 -0.616833 0.178262 255 0 0
-0.027304 -0.155209 -0.288464 0 0 255
0.140407 -0.025872 0.049494 76 0 153
0.295597 0.553386 0.223148 76 0 153
0.778378 0.379887 -0.151113 153 0 76
0.761581 -0.250580 0.249837 127 127 0
-0.742908 -0.280714 0.069329 204 51 127
-0.039813 0.576791 -0.148857 0 255 0
-0.724972 -0.512792 0.249837 0 127 127
0.583818 0.455804 -0.270911 0 0 255
0.101491 -0.639698 0.249837 153 76 0
0.783845 0.413504 0.214731 127 127 0
-0.577153 0.106323 0.249837 0 127 127
0.087948 -0.422350 0.215353 127 0 127
-0.577141 0.566951 -0.288464 0 0 255
-0.552058 -0.013894 0.214731 76 0 153
-0.718066 0.465485 0.284944 0 127 127
-0.061433 -0.372094 -0.288464 0 0 255
0.726141 -0.006916 0.284944 153 0 76
-0.521733 0.581521 0.249837 76 0 153
0.080422 0.600195 -0.213399 0 255 0
0.484756 -0.194947 -0.270911 0 0 255
-0.494882 -0.089061 0.267391 0 127 127
-0.641013 0.009234 0.052287 76 0 153
-0.719504 0.308969 -0.072792 204 51 127
0.754973 0.184241 -0.084348 153 0 76
0.754973 0.006096 -0.210028 153 0 76
-0.499839 -0.050469 -0.288464 0 0 255
0.263991 -0.383537 -0.288464 0 0 255
0.395672 -0.616833 0.196381 255 0 0
0.582390 0.600195 -0.180985 0 255 0
-0.063002 0.232622 0.249837 0 127 127
0.281602 -0.616833 0.203365 255 0 0
0.655681 0.026272 -0.288464 0 0 255
-0.701010 0.600195 0.081927 0 255 0
0.106586 0.576791 -0.228677 0 255 0
-0.691905 0.526056 0.214731 0 127 127
-0.586797 -0.616833 -0.023599 255 0 0
-0.719504 -0.488042 0.072193 204 51 127
-0.370619 -0.025872 -0.100280 76 0 153
0.494325 0.535408 0.249837 153 0 76
0.231305 0.600195 -0.281972 0 255 0
0.304551 -0.214728 0.249837 153 0 76
-0.538012 0.306617 -0.288464 0 0 255
0.754973 -0.416075 -0.035115 153 0 76
0.003945 -0.510502 -0.270911 0 0 255
-0.742908 -0.217329 -0.111628 204 51 127
-0.528681 -0.310618 0.267391 0 127 127
0.202762 -0.616833 0.039290 255 0 0
0.493123 0.337022 -0.270911 0 0 255
-0.586095 0.009234 -0.247874 76 0 153
-0.441014 -0.021098 0.214731 76 0 153
-0.143045 0.056524 0.267391 0 127 127
0.505123 0.600195 -0.103776 0 255 0
0.097206 -0.309092 0.249837 153 0 76
-0.324140 0.457029 0.249837 0 127 127
0.132293 -0.504127 0.284944 153 0 76
-0.427466 0.555643 0.284944 0 127 127
0.318610 0.113339 0.267391 153 0 76
0.140522 -0.368141 -0.270911 0 0 255
0.466378 0.086444 -0.270911 0 0 255
0.330153 -0.616833 0.122398 255 0 0
0.201762 -0.025872 0.112593 76 0 153
0.049388 0.039228 -0.288464 0 0 255
-0.742908 -0.507764 0.164812 204 51 127
0.335988 0.045753 -0.270911 0 0 255
0.377150 -0.261001 -0.270911 0 0 255
-0.087493 0.009234 0.009405 76 0 153
0.033656 -0.532267 0.249837 127 0 127
0.432167 -0.411748 0.267391 153 0 76
-0.227199 -0.009662 -0.270911 0 0 255
-0.742908 -0.129675 0.137406 204 51 127
-0.754572 -0.311270 0.214731 0 127 127
0.116475 -0.156981 0.249837 153 0 76
-0.344222 -0.025872 0.143062 76 0 153
-0.597621 0.528978 -0.311868 76 153 0
0.370482 0.342519 -0.288464 0 0 255
-0.450564 -0.616833 0.027994 255 0 0
0.064583 0.153368 -0.270911 0 0 255
-0.169534 -0.025872 -0.240811 76 0 153
-0.386232 0.503682 0.277926 0 127 127
0.754973 0.047047 -0.099449 153 0 76
0.309920 -0.616833 -0.130581 255 0 0
-0.719504 -0.314031 -0.076670 204 51 127
-0.053825 -0.025872 -0.055115 76 0 153
-0.533141 0.553386 0.224686 76 0 153
0.561738 -0.422360 -0.288464 0 0 255
-0.264632 0.009234 -0.132039 76 0 153
-0.670862 0.240586 0.249837 0 127 127
0.389761 -0.431783 0.267391 153 0 76
-0.733082 0.317343 0.284944 0 127 127
0.754973 0.202050 -0.128807 153 0 76
-0.488493 -0.501657 0.274917 0 127 127
0.790080 -0.198071 0.225985 127 127 0
0.623859 0.537021 0.284944 153 0 76
0.297194 0.602119 0.249837 76 0 153
0.000182 0.229084 0.214731 127 0 127
0.536169 0.600195 -0.218495 0 255 0
-0.719504 0.475292 -0.268958 204 51 127
0.203074 0.515291 0.284944 153 0 76
-0.742908 0.398334 -0.029178 204 51 127
0.165640 -0.570409 0.249837 153 76 0
-0.719504 -0.484196 0.213067 204 51 127
-0.181176 -0.607214 -0.311868 153 0 76
-0.686950 0.303169 -0.288464 0 0 255
0.634653 -0.195402 -0.270911 0 0 255
-0.319364 -0.237721 0.267391 0 127 127
-0.239661 0.576791 -0.228525 0 255 0
0.026512 -0.067228 0.277714 153 0 76
-0.673262 -0.459122 0.284944 0 127 127
0.778378 0.198706 0.127295 153 0 76
-0.131468 -0.504773 0.283997 0 127 127
-0.483747 0.253508 -0.288464 0 0 255
0.021777 0.236405 -0.270911 0 0 255
0.226054 0.576791 -0.035212 0 255 0
-0.588845 0.576791 -0.184265 0 255 0
-0.719504 -0.202109 -0.130668 204 51 127
-0.567463 0.009234 -0.167373 76 0 153
0.489566 -0.593429 0.014245 255 0 0
0.790080 0.211785 0.225040 127 127 0
-0.643923 -0.593429 -0.060003 255 0 0
-0.373998 -0.321856 -0.288464 0 0 255
0.470034 -0.122986 -0.270911 0 0 255
0.074177 -0.451513 0.249837 127 0 127
0.186303 -0.321505 0.267391 153 0 76
-0.473514 -0.133140 -0.270911 0 0 255
-0.177389 0.257395 0.249837 0 127 127
-0.742908 -0.630585 -0.010063 204 51 127
-0.717272 0.100736 -0.288464 0 0 255
-0.742908 -0.614786 0.202712 204 51 127
0.041879 -0.593429 0.037370 255 0 0
0.544520 -0.616833 0.184365 255 0 0
0.640877 0.289633 0.279751 153 0 76
0.292138 -0.025872 -0.218591 76 0 153
-0.424267 0.600195 0.118172 0 255 0
0.166938 0.222655 0.274331 153 0 76
0.493094 0.596741 -0.311868 76 153 0
-0.652453 0.535016 -0.288464 0 0 255
-0.179844 -0.248326 0.249837 0 127 127
0.204019 0.236490 -0.288464 0 0 255
-0.117094 0.346122 -0.270911 0 0 255
0.299966 -0.021604 0.214731 76 0 153
-0.742908 0.302339 -0.099960 204 51 127
0.293107 0.009234 -0.184552 76 0 153
0.301116 0.516110 -0.311868 76 153 0
0.572275 0.009234 0.162321 76 0 153
0.211545 0.600195 -0.252399 0 255 0
-0.719504 -0.344649 -0.251998 204 51 127
-0.742908 -0.364429 -0.144676 204 51 127
0.546832 0.623600 -0.294412 76 153 0
-0.573706 0.600195 -0.136776 0 255 0
0.433044 0.009234 -0.219938 76 0 153
-0.015334 -0.025872 0.081552 76 0 153
-0.195284 -0.616833 0.143657 255 0 0
0.754973 -0.155609 0.006396 153 0 76
0.674239 -0.470408 -0.270911 0 0 255
0.584876 -0.353275 0.249837 153 0 76
-0.448768 -0.616833 -0.277849 255 0 0
0.171818 0.167391 0.267391 153 0 76
0.754973 -0.204776 0.059444 153 0 76
0.178014 -0.087537 -0.270911 0 0 255
0.339878 0.581234 -0.311868 76 153 0
0.778378 -0.151831 -0.218506 153 0 76
-0.325088 0.611776 0.284944 0 127 127
0.711532 0.382292 0.284944 153 0 76
0.788346 0.038193 0.214731 127 127 0
-0.648414 -0.627886 0.284944 0 127 127
-0.742908 0.535946 0.175834 204 51 127
0.029061 -0.334364 -0.288464 0 0 255
0.018088 0.009234 0.087601 76 0 153
0.383827 -0.556722 0.249837 153 0 76
0.189503 -0.424029 -0.288464 0 0 255
0.400548 0.589680 0.214731 76 0 153
0.362052 0.600195 -0.223033 0 255 0
0.129909 -0.025872 0.187111 76 0 153
0.110926 -0.122770 -0.270911 0 0 255
-0.680594 0.009234 0.192260 76 0 153
-0.279326 0.576791 0.015356 0 255 0
-0.014052 -0.097628 -0.270911 0 0 255
-0.724459 0.379166 0.249837 0 127 127
-0.517037 -0.616833 -0.259579 255 0 0
0.754973 0.211722 -0.203179 153 0 76
0.492823 0.515226 -0.311868 76 153 0
0.325642 -0.511614 -0.288464 0 0 255
0.050600 -0.271769 0.214731 127 0 127
0.389869 -0.593429 -0.037538 255 0 0
0.066252 -0.616833 0.058593 255 0 0
0.667053 -0.581361 0.284944 153 0 76
-0.742908 -0.577126 0.010537 204 51 127
0.489476 0.600195 0.026824 0 255 0
0.251257 0.009234 -0.075255 76 0 153
-0.494007 0.246003 0.267391 0 127 127
-0.272894 -0.640238 0.215586 153 76 0
0.428300 0.339325 -0.270911 0 0 255
0.560580 -0.593429 -0.069319 255 0 0
-0.431564 0.576791 -0.031176 0 255 0
0.701713 -0.025872 0.060451 76 0 153
0.289162 -0.012676 0.249837 153 0 76
0.466451 -0.025872 -0.226685 76 0 153
0.778378 -0.577892 0.179399 153 0 76
0.073284 -0.499843 -0.311868 153 0 76
0.633352 -0.593429 -0.074597 255 0 0
-0.143792 0.087165 -0.270911 0 0 255
-0.250574 -0.025872 0.166612 76 0 153
0.754973 -0.483402 -0.184404 153 0 76
0.251103 -0.053865 -0.288464 76 0 153
0.004677 -0.414475 0.249837 0 127 127
-0.615235 0.623600 0.249456 76 0 153
0.043590 0.600195 0.157920 0 255 0
0.267151 -0.025872 -0.198106 76 0 153
-0.656825 -0.338446 -0.270911 0 0 255
-0.627326 0.344210 0.249837 0 127 127
-0.147577 0.356258 -0.288464 0 0 255
-0.042049 -0.593429 -0.087755 255 0 0
0.754973 -0.104979 0.102181 153 0 76
-0.238527 -0.125462 0.267391 0 127 127
-0.139068 0.600195 0.037336 0 255 0
0.302178 -0.570024 0.225376 153 76 0
0.749257 0.142278 0.249837 127 127 0
-0.449846 0.163075 0.249837 0 127 127
-0.160200 -0.593992 0.284944 0 127 127
-0.630841 -0.208860 0.284944 0 127 127
-0.552581 -0.070069 -0.288464 0 0 255
-0.420138 -0.535347 -0.311868 153 0 76
-0.157448 0.564900 -0.270911 0 0 255
0.778378 0.495672 -0.006676 153 0 76
-0.625693 -0.616833 0.175705 255 0 0
-0.111351 0.537864 0.284944 0 127 127
0.754973 -0.190261 -0.283478 153 0 76
-0.742908 -0.571783 -0.218129 204 51 127
-0.572601 -0.307045 -0.270911 0 0 255
0.714096 -0.551329 0.249837 153 0 76
0.323435 0.146495 -0.270911 0 0 255
0.687192 -0.021515 -0.311868 76 0 153
-0.742908 0.486359 0.050946 204 51 127
0.226693 0.589197 0.214731 76 0 153
-0.341658 -0.616833 -0.040133 255 0 0
-0.582236 -0.447659 0.267391 0 127 127
0.252139 0.530587 0.249837 153 0 76
0.288555 0.218037 -0.270911 0 0 255
0.754973 0.261987 -0.040980 153 0 76
0.030064 -0.616833 -0.085159 255 0 0
-0.714151 0.189238 -0.288464 0 0 255
0.129642 -0.593429 -0.147422 255 0 0
0.778378 0.484755 -0.108007 153 0 76
-0.267619 -0.037255 0.249837 0 127 127
0.634561 -0.015101 0.214731 76 0 153
0.754973 -0.119457 -0.171008 153 0 76
-0.660598 -0.025872 -0.202017 76 0 153
0.425258 -0.593429 -0.094205 255 0 0
0.122859 -0.025872 0.121226 76 0 153
-0.035326 -0.348527 -0.270911 0 0 255
-0.438665 0.576791 -0.074498 0 255 0
0.105340 0.590714 -0.288464 76 153 0
0.764973 -0.640238 -0.095227 153 0 76
-0.587060 -0.595215 -0.311868 153 0 76
-0.742908 0.003214 -0.099398 204 51 127
-0.222216 -0.619855 0.284944 0 127 127
-0.675472 -0.025872 0.049921 76 0 153
0.008958 0.402183 0.284150 0 127 127
-0.421089 -0.593429 0.075623 255 0 0
-0.463200 0.575755 0.284944 0 127 127
0.778378 -0.200646 -0.014454 153 0 76
0.437287 0.530745 -0.311868 76 153 0
-0.383072 0.055651 -0.270911 0 0 255
0.712831 -0.021874 0.249837 153 0 76
-0.356764 0.036928 -0.288464 0 0 255
0.541917 -0.346775 -0.288464 255 0 0
0.115045 -0.593429 0.025012 255 0 0
-0.057101 -0.637290 -0.288464 153 0 76
0.007196 -0.543176 -0.270911 0 0 255
-0.211995 0.600195 0.132193 0 255 0
-0.527824 0.056734 -0.270911 0 0 255
0.261960 -0.028420 0.267391 153 0 76
0.095946 -0.616833 -0.000441 255 0 0
0.188225 -0.025872 -0.074157 76 0 153
-0.425519 0.419638 -0.288464 0 0 255
0.667064 0.519734 -0.311868 76 153 0
-0.754610 0.432393 0.243945 0 127 127
-0.553661 0.623600 0.218520 76 0 153
-0.754610 -0.084617 0.221558 0 127 127
0.495855 -0.066644 -0.311868 76 0 153
0.031860 -0.028971 0.249837 127 0 127
0.365299 -0.177601 -0.288464 0 0 255
-0.671229 -0.048028 -0.288464 76 0 153
0.178403 0.009234 -0.224957 76 0 153
0.688033 0.550788 0.249837 153 0 76
0.778378 0.124084 -0.078332 153 0 76
-0.105729 -0.025872 0.214692 76 0 153
-0.311923 -0.409285 -0.270911 0 0 255
0.442806 -0.049818 -0.288464 76 0 153
-0.609147 0.253225 -0.270911 0 0 255
0.047547 0.246939 0.284944 153 0 76
-0.507864 0.133122 -0.270911 0 0 255
-0.727421 0.047114 0.249837 0 127 127
0.686181 -0.631978 0.214731 153 76 0
0.092633 0.569787 0.214731 76 0 153
0.778378 0.252529 -0.020198 153 0 76
0.358667 -0.616833 0.070844 255 0 0
0.686716 -0.461853 0.284944 153 0 76
-0.284578 0.532943 -0.311868 76 153 0
0.778378 0.557652 -0.069912 153 0 76
-0.090419 -0.171277 0.284944 0 127 127
-0.634752 -0.593429 0.096111 255 0 0
-0.396724 -0.364657 0.267391 0 127 127
0.327083 0.477490 0.249837 153 0 76
0.754973 -0.549481 -0.139744 153 0 76
-0.139629 -0.458176 -0.288464 0 0 255
-0.718897 -0.593429 -0.177425 255 0 0
-0.719504 -0.391339 0.064289 204 51 127
0.587069 0.543319 -0.288464 76 153 0
0.754973 0.621743 -0.068054 153 0 76
-0.335325 -0.616833 0.176788 255 0 0
-0.053693 -0.540295 -0.288464 0 0 255
0.415964 0.600195 0.010630 0 255 0
0.532374 -0.616833 -0.279084 255 0 0
-0.423006 -0.570463 0.249837 0 127 127
0.014772 -0.557783 -0.311868 153 0 76
0.616399 -0.434033 -0.270911 0 0 255
0.677907 -0.616833 0.151243 255 0 0
-0.330846 0.480712 -0.288464 0 0 255
0.114708 -0.259784 -0.288464 0 0 255
0.698309 -0.593429 -0.151585 255 0 0
-0.526293 0.600103 -0.311868 76 153 0
0.166938 -0.210303 0.278431 153 0 76
-0.513160 -0.025872 -0.250361 76 0 153
0.554053 -0.510775 -0.270911 0 0 255
-0.742908 0.296918 -0.292678 204 51 127
-0.742908 -0.220584 -0.027863 204 51 127
0.198710 -0.439447 0.249837 153 0 76
0.464280 0.576791 0.120023 0 255 0
0.450395 0.600195 -0.107478 0 255 0
0.754973 -0.634289 -0.272972 153 0 76
0.404840 -0.025872 -0.010791 76 0 153
-0.719504 0.386293 0.059800 204 51 127
-0.510872 -0.245243 0.267391 0 127 127
0.209420 0.483173 -0.304728 76 153 0
0.754973 -0.370327 -0.164572 153 0 76
0.579958 0.391700 0.267391 153 0 76
-0.128815 -0.292995 -0.270911 0 0 255
0.416689 -0.167826 -0.288464 0 0 255
0.754973 -0.529925 -0.093648 153 0 76
0.262823 -0.450373 -0.288464 0 0 255
0.778378 -0.100265 0.124570 153 0 76
0.778378 -0.100517 -0.222621 153 0 76
-0.537911 -0.584342 -0.288464 153 0 76
-0.284274 0.600195 0.064043 0 255 0
0.328017 0.009234 0.128390 76 0 153
-0.284330 -0.609411 0.249837 153 76 0
0.614150 0.600195 0.093394 0 255 0
-0.096499 0.009234 -0.135735 76 0 153
-0.723420 0.218729 -0.311868 204 51 127
-0.742908 -0.196131 0.203558 204 51 127
0.252543 -0.025872 -0.115584 76 0 153
0.329680 0.009234 -0.205665 76 0 153
0.252746 0.570823 -0.288464 0 0 255
0.501860 0.176409 0.249837 153 0 76
-0.742908 -0.032345 0.062300 204 51 127
-0.078824 0.392736 -0.288464 0 0 255
0.754973 0.567892 0.126471 153 0 76
0.454160 -0.499811 -0.309800 153 0 76
0.480325 0.494852 -0.288464 76 153 0
0.778378 0.444080 -0.076313 153 0 76
0.744425 -0.352592 -0.288464 0 0 255
0.327901 -0.025872 -0.172275 76 0 153
0.033602 0.199499 0.214731 127 0 127
-0.269548 0.578582 0.284944 0 127 127
-0.742908 -0.047693 -0.001210 204 51 127
-0.549664 0.576791 -0.106514 0 255 0
0.083772 0.426722 0.214731 127 0 127
0.015502 0.600195 -0.096507 0 255 0
-0.296120 0.484142 0.249837 0 127 127
0.596023 0.583673 -0.311868 76 153 0
-0.453824 -0.593429 0.127342 255 0 0
-0.387745 0.600195 -0.074020 0 255 0
-0.217328 -0.427889 0.249837 0 127 127
-0.591946 0.453708 -0.288464 0 0 255
-0.719504 -0.378323 0.105861 204 51 127
-0.338759 -0.616833 -0.219446 255 0 0
0.199126 0.576791 -0.140670 0 255 0
-0.719504 -0.419582 0.206251 204 51 127
-0.068616 -0.593429 -0.041609 255 0 0
-0.497959 0.060632 -0.311868 76 0 153
0.771836 -0.192095 0.284944 153 0 76
0.270179 -0.586524 -0.288464 0 0 255
0.178390 0.600195 0.011104 0 255 0
0.581514 -0.226885 -0.288464 0 0 255
0.136216 -0.211511 -0.288464 0 0 255
-0.156280 -0.593429 0.081495 255 0 0
-0.435248 0.009234 0.047231 76 0 153
-0.719504 0.441334 0.013148 204 51 127
-0.010113 -0.593429 0.050923 255 0 0
-0.621962 0.600195 -0.216359 0 255 0
-0.448276 0.128828 -0.288464 0 0 255
-0.719504 0.390970 0.202018 204 51 127
-0.719504 -0.184045 -0.272465 204 51 127
-0.215906 0.576791 -0.255494 0 255 0
-0.301524 -0.025872 -0.007344 76 0 153
-0.640756 0.403611 -0.270911 0 0 255
0.132029 0.576791 0.181596 0 255 0
0.535193 0.576791 -0.284879 0 255 0
-0.324405 -0.031760 0.249837 0 127 127
0.754973 -0.048625 -0.238165 153 0 76
0.391588 -0.120686 -0.288464 0 0 255
0.720468 0.515075 -0.311868 76 153 0
0.754973 -0.453067 0.068084 153 0 76
0.670097 -0.616833 0.001280 255 0 0
0.561972 -0.078532 -0.290123 76 0 153
-0.280272 -0.025872 -0.088820 76 0 153
-0.538387 -0.610694 -0.311868 153 0 76
-0.150301 0.563341 0.249837 0 127 127
0.489977 -0.025872 -0.161069 76 0 153
-0.083357 0.223261 0.284944 0 127 127
-0.742908 0.293838 -0.249495 204 51 127
-0.745833 -0.310828 0.252675 0 127 127
0.511205 0.614326 0.284944 153 0 76
-0.463262 -0.545759 -0.311868 153 0 76
0.786510 0.190581 0.249837 127 127 0
-0.487447 0.009234 -0.046548 76 0 153
-0.742908 -0.448589 0.141058 204 51 127
0.326144 -0.031412 -0.288464 0 0 255
0.265401 -0.022996 -0.270911 0 0 255
0.205019 0.009234 0.115922 76 0 153
-0.139294 0.142440 -0.288464 0 0 255
0.778378 0.190596 -0.033541 153 0 76
0.256911 -0.025872 0.082247 76 0 153
0.605906 -0.126025 0.267391 153 0 76
0.107956 -0.148224 0.284944 153 0 76
0.166938 0.304126 0.279690 153 0 76
0.000333 0.105723 -0.288464 0 0 255
-0.036956 -0.041119 0.284944 0 127 127
-0.365547 -0.616833 -0.283926 255 0 0
-0.419276 -0.616833 -0.146548 255 0 0
0.506281 0.528053 -0.270911 0 0 255
0.766618 -0.625165 0.249837 153 0 76
0.778378 0.579313 -0.260096 153 0 76
0.236576 0.569459 0.249837 76 0 153
0.157584 0.518965 -0.311868 76 153 0
0.778378 0.278511 -0.076318 153 0 76
0.778378 0.091969 -0.280361 153 0 76
0.529428 0.416394 0.249837 153 0 76
-0.719504 -0.057423 -0.089152 204 51 127
0.335111 -0.077938 0.249837 153 0 76
-0.708172 0.600195 -0.112589 0 255 0
0.494565 -0.616833 -0.211352 255 0 0
0.265198 0.595069 0.249837 153 0 76
0.333318 -0.593429 -0.013883 255 0 0
-0.420763 -0.585362 -0.311868 153 0 76
0.275425 0.009234 -0.117811 76 0 153
-0.635246 -0.348354 0.284944 0 127 127
0.607655 -0.593429 0.088354 255 0 0
0.548013 -0.550957 0.249837 153 0 76
0.186926 0.576791 -0.106442 0 255 0
-0.039362 0.308915 0.249837 127 0 127
0.754973 0.020774 0.136350 153 0 76
-0.719504 -0.419123 0.009230 204 51 127
0.506227 -0.616833 -0.002393 255 0 0
0.778378 0.563444 -0.290092 153 0 76
0.781303 -0.502489 0.271758 153 0 76
-0.673554 -0.499746 0.284944 0 127 127
-0.118422 -0.592123 -0.311868 153 0 76
-0.433804 0.257639 0.249837 0 127 127
0.117567 0.600195 0.083407 0 255 0
0.563258 -0.606653 -0.311868 153 0 76
-0.335516 -0.025872 -0.055408 76 0 153
-0.383683 -0.290172 0.249837 0 127 127
-0.403818 -0.075778 -0.311868 76 0 153
0.223920 0.197788 -0.288464 0 0 255
-0.567637 0.576791 0.039586 0 255 0
0.296858 0.097966 -0.288464 0 0 255
0.142876 -0.300936 -0.288464 0 0 255
-0.271739 -0.051762 -0.311868 76 0 153
0.712056 0.188090 -0.288464 0 0 255
-0.719504 -0.238753 -0.105548 204 51 127
-0.643160 0.435860 -0.288464 0 0 255
-0.549629 0.009234 -0.127619 76 0 153
0.008958 0.223661 0.254014 0 127 127
0.480204 -0.369730 0.267391 153 0 76
0.636445 0.105467 0.267391 153 0 76
-0.621838 0.600195 0.067517 0 255 0
0.136667 0.300727 -0.288464 0 0 255
-0.544117 -0.593429 -0.180416 255 0 0
-0.472365 -0.023560 0.214731 76 0 153
0.538857 -0.522343 0.278252 153 0 76
-0.734257 -0.023519 0.214731 0 127 127
0.623817 -0.552713 -0.288464 0 0 255
0.369225 0.576791 0.171940 0 255 0
0.573604 0.600195 -0.220711 0 255 0
0.778378 -0.062548 -0.150053 153 0 76
0.754973 -0.120737 0.197910 153 0 76
-0.742908 -0.571287 0.129888 204 51 127
-0.421579 -0.025872 -0.001383 76 0 153
0.290014 -0.184106 -0.288464 0 0 255
-0.495858 0.009234 0.072708 76 0 153
0.443530 0.357139 0.249837 153 0 76
0.569209 0.595231 -0.288464 76 153 0
-0.004605 0.339892 0.284944 0 127 127
-0.742908 0.211507 -0.064016 204 51 127
0.062344 -0.338660 -0.288464 0 0 255
0.754973 0.172580 0.083455 153 0 76
0.772533 -0.295024 0.214731 127 127 0
0.279223 0.576791 0.046740 0 255 0
0.374762 0.600195 0.075922 0 255 0
0.091848 -0.236294 -0.270911 0 0 255
0.256302 -0.593429 -0.128442 255 0 0
-0.177531 0.590878 0.214731 76 0 153
0.090495 -0.513000 -0.270911 0 0 255
-0.591826 0.289101 0.267391 0 127 127
-0.365596 0.596718 -0.311868 76 153 0
0.763231 -0.501777 -0.311868 153 0 76
-0.376124 -0.025872 0.209564 76 0 153
-0.626017 0.025385 -0.311868 76 0 153
-0.719504 -0.193104 -0.003502 204 51 127
-0.413867 0.184909 -0.270911 0 0 255
-0.140571 0.177622 -0.288464 0 0 255
-0.473349 -0.396919 -0.288464 0 0 255
-0.557521 -0.616833 0.109780 255 0 0
-0.145358 0.017690 0.267391 0 127 127
-0.010691 0.547913 -0.288464 76 153 0
-0.246692 0.577795 -0.311868 76 153 0
0.778378 0.236207 -0.203929 153 0 76
-0.140708 0.576791 0.193643 0 255 0
0.697387 0.318166 0.284944 153 0 76
0.398390 -0.578807 0.214731 153 76 0
-0.242574 -0.515457 -0.311868 153 0 76
-0.489532 -0.593429 0.111036 255 0 0
-0.361794 0.203617 0.267391 0 127 127
0.778378 0.277214 -0.281219 153 0 76
-0.574152 0.261236 0.267391 0 127 127
0.754973 -0.567852 -0.242501 153 0 76
-0.742908 -0.512033 -0.309355 204 51 127
0.288268 0.576791 -0.225292 0 255 0
-0.147687 -0.519909 0.249837 0 127 127
0.553387 0.009234 -0.255988 76 0 153
0.258745 -0.593429 0.120733 255 0 0
0.404201 -0.526088 -0.270911 0 0 255
0.754973 -0.116020 -0.296569 153 0 76
-0.173965 -0.025872 -0.093710 76 0 153
-0.325630 0.045408 -0.311868 76 0 153
-0.520522 -0.389082 -0.288464 0 0 255
-0.350927 -0.021593 -0.270911 76 0 153
-0.719504 0.252826 -0.075472 204 51 127
-0.642499 -0.601766 -0.288464 153 0 76
-0.430928 0.553386 0.231524 76 0 153
-0.470679 0.502310 -0.311868 76 153 0
-0.246244 0.412046 -0.270911 0 0 255
-0.256339 0.009234 0.099339 76 0 153
0.528999 -0.025872 -0.235654 76 0 153
0.691876 -0.025872 -0.111422 76 0 153
-0.469599 -0.593429 -0.163127 255 0 0
-0.180295 0.366485 -0.270911 0 0 255
0.644468 0.576791 0.169876 0 255 0
-0.487993 -0.025872 -0.019938 76 0 153
-0.476590 -0.616833 -0.006595 255 0 0
0.320212 -0.616833 -0.090182 255 0 0
0.549890 -0.025872 0.098751 76 0 153
-0.321625 -0.429176 0.249837 0 127 127
0.582897 -0.593429 -0.116457 255 0 0
-0.431381 -0.640238 0.245742 153 76 0
0.645221 -0.025872 0.181428 76 0 153
0.778378 0.531703 -0.003941 153 0 76
0.081743 -0.616833 -0.203588 255 0 0
-0.754610 0.504915 0.228281 0 127 127
-0.556469 -0.593429 0.037957 255 0 0
0.731547 -0.150546 0.214731 127 127 0
0.778378 0.153939 -0.271214 153 0 76
-0.697213 -0.593429 -0.205761 255 0 0
-0.664572 -0.593429 0.128805 255 0 0
-0.742908 -0.413081 -0.092856 204 51 127
0.580559 0.214406 -0.288464 0 0 255
-0.147334 0.261075 0.267391 0 127 127
-0.052478 0.368673 0.216646 127 0 127
0.037772 -0.056171 -0.288464 76 0 153
0.654965 -0.391631 0.284944 153 0 76
0.252844 -0.174938 -0.270911 0 0 255
0.346563 0.419680 0.249837 153 0 76
0.526532 -0.485558 -0.288464 0 0 255
-0.742908 0.065133 0.133148 204 51 127
0.640877 0.405698 0.281478 153 0 76
0.778378 0.457591 -0.188943 153 0 76
-0.183902 -0.148869 0.249837 0 127 127
-0.412193 -0.616833 0.094213 255 0 0
0.577963 -0.596158 0.214731 153 76 0
0.754973 0.193116 -0.291803 153 0 76
-0.385963 -0.616833 -0.170111 255 0 0
-0.440943 -0.616833 -0.094758 255 0 0
-0.354294 0.600195 -0.170030 0 255 0
-0.048391 -0.593429 0.009988 255 0 0
-0.742908 -0.408134 0.034640 204 51 127
-0.718518 -0.616833 0.105923 255 0 0
-0.202455 0.009234 0.185008 76 0 153
-0.742908 0.120806 -0.244051 204 51 127
0.033559 0.523317 -0.270911 0 0 255
0.462012 0.124579 -0.288464 0 0 255
-0.742908 -0.001404 0.095039 204 51 127
0.289208 -0.284949 -0.270911 0 0 255
0.675511 0.260936 0.284944 153 0 76
-0.040794 -0.501320 0.284944 0 127 127
0.464609 0.461542 -0.288464 0 0 255
-0.429264 0.576791 0.177632 0 255 0
0.095396 0.391025 0.284944 153 0 76
0.737499 0.044352 0.284944 153 0 76
0.099018 0.576791 -0.057109 0 255 0
0.263328 0.009234 -0.226423 76 0 153
-0.633718 0.009234 -0.154504 76 0 153
0.778378 -0.320438 -0.283521 153 0 76
-0.401644 0.365251 -0.270911 0 0 255
0.778378 0.210982 -0.068774 153 0 76
-0.163015 -0.475214 0.249837 0 127 127
-0.608575 -0.046295 -0.288464 0 0 255
0.357463 0.576791 -0.133445 0 255 0
-0.197623 -0.140884 -0.270911 0 0 255
0.316198 0.576791 -0.155875 0 255 0
0.754973 0.351541 0.199260 153 0 76
0.308240 -0.278596 0.267391 153 0 76
0.292024 -0.603307 0.284944 153 0 76
0.624597 0.230658 0.267391 153 0 76
0.311535 0.600195 -0.184473 0 255 0
-0.740889 0.463016 0.249837 0 127 127
-0.637312 -0.570024 0.225075 153 76 0
-0.571011 -0.493396 -0.288464 0 0 255
0.640877 0.076033 0.281901 153 0 76
0.778378 0.354507 -0.026147 153 0 76
-0.719504 -0.071364 -0.034607 204 51 127
-0.719504 -0.278983 0.123148 204 51 127
0.754973 -0.448761 -0.152467 153 0 76
-0.074654 -0.593429 0.035911 255 0 0
-0.171459 -0.033695 0.267391 0 127 127
0.103546 -0.059129 -0.288464 0 0 255
0.722144 -0.616833 -0.178286 255 0 0
0.778378 0.519886 0.026437 153 0 76
-0.742908 0.145933 -0.279204 204 51 127
-0.461732 0.600195 0.067387 0 255 0
0.047497 0.336319 0.284944 153 0 76
-0.745833 -0.106118 0.279491 0 127 127
-0.664205 -0.616833 -0.061931 255 0 0
0.511609 -0.587762 0.214731 153 76 0
0.532003 0.208128 -0.288464 0 0 255
-0.357659 -0.631461 0.280784 0 127 127
0.778378 -0.334103 -0.229319 153 0 76
0.576176 -0.267143 0.267391 153 0 76
0.270582 0.043125 0.249837 153 0 76
0.778378 -0.410691 -0.081294 153 0 76
-0.745833 -0.407925 0.254233 0 127 127
0.169479 -0.616833 -0.178567 255 0 0
0.612042 0.600195 -0.109496 0 255 0
0.724559 0.442912 0.249837 153 0 76
-0.030440 -0.146103 0.249837 127 0 127
0.026512 0.504060 0.283228 153 0 76
-0.742908 -0.362883 0.007456 204 51 127
0.754973 0.345666 -0.166694 153 0 76
-0.165528 0.600195 -0.085856 0 255 0
-0.053820 0.030281 -0.311868 76 0 153
-0.722989 -0.558727 0.214731 0 127 127
-0.719504 0.354805 -0.018588 204 51 127
0.778378 -0.393632 -0.289032 153 0 76
-0.478386 -0.635315 -0.288464 153 0 76
-0.215654 -0.025872 0.124563 76 0 153
-0.052478 -0.306164 0.248333 127 0 127
0.175200 0.009234 -0.019421 76 0 153
-0.408744 0.517821 0.249837 0 127 127
-0.742908 0.045742 -0.201892 204 51 127
0.275423 0.600195 0.187569 0 255 0
0.126483 -0.619324 -0.311868 153 0 76
-0.704020 0.349092 0.284944 0 127 127
-0.052478 -0.073269 0.246181 127 0 127
0.778378 0.067903 0.178594 153 0 76
0.678810 -0.270835 0.249837 153 0 76
0.342736 -0.025872 -0.071497 76 0 153
0.429981 -0.616833 -0.151410 255 0 0
-0.243490 -0.055056 0.267391 0 127 127
0.246976 0.085872 -0.288464 0 0 255
0.432428 -0.593429 0.137044 255 0 0
-0.742908 0.167532 -0.021153 204 51 127
0.602050 -0.381777 0.249837 153 0 76
-0.011275 -0.099843 0.284944 0 127 127
0.026512 -0.507435 0.281279 153 0 76
-0.427855 0.361195 0.267391 0 127 127
-0.596221 0.357957 -0.270911 0 0 255
0.286782 -0.437053 -0.270911 0 0 255
0.365050 0.149340 0.249837 153 0 76
-0.719504 0.170920 -0.222562 204 51 127
0.627131 -0.043345 -0.311868 76 0 153
-0.717861 0.451424 -0.288464 0 0 255
-0.742908 0.549265 0.124430 204 51 127
0.778378 -0.540369 0.049322 153 0 76
-0.742908 0.364610 0.132432 204 51 127
0.591317 0.011102 0.267391 153 0 76
0.150490 0.482059 -0.288464 0 0 255
-0.621770 0.178890 -0.288464 0 0 255
0.754973 -0.167316 -0.183832 153 0 76
0.725660 -0.241616 0.214731 127 127 0
-0.443253 0.547246 -0.288464 0 0 255
0.453558 0.169205 -0.270911 0 0 255
-0.544782 -0.503073 -0.311868 153 0 76
0.083587 -0.527310 0.249837 153 0 76
-0.690789 -0.077671 -0.270911 0 0 255
0.778378 0.467422 0.076870 153 0 76
0.598338 0.018816 -0.270911 0 0 255
0.373683 -0.593429 0.085268 255 0 0
0.471696 0.589124 0.284944 153 0 76
-0.418681 -0.616833 -0.180682 255 0 0
0.640877 0.263630 0.254835 153 0 76
0.594208 0.298603 -0.270911 0 0 255
0.519841 -0.631461 0.250122 153 0 76
-0.030166 -0.631461 0.271677 0 127 127
-0.106106 0.032305 -0.288464 0 0 255
-0.742908 -0.418738 -0.189146 204 51 127
0.374379 0.263958 -0.270911 0 0 255
0.098283 -0.593031 0.284944 153 0 76
-0.567500 0.013457 -0.311868 76 0 153
0.186341 -0.520752 -0.270911 0 0 255
-0.441231 0.009234 -0.042927 76 0 153
-0.159937 0.179723 0.267391 0 127 127
-0.327664 -0.544422 -0.270911 0 0 255
0.719867 0.460470 0.219766 127 127 0
-0.052962 0.314622 0.327174 76 153 0
-0.596890 -0.616833 -0.176793 255 0 0
0.090028 0.600195 -0.160704 0 255 0
-0.453714 0.392349 0.249837 0 127 127
-0.005440 -0.025872 -0.240797 76 0 153
-0.348542 0.505740 0.278258 0 127 127
-0.644577 0.008877 -0.288464 76 0 153
-0.385723 0.600195 -0.201676 0 255 0
0.778378 0.498495 -0.234406 153 0 76
-0.714209 0.301127 -0.270911 0 0 255
-0.312062 -0.021650 -0.288464 76 0 153
-0.315769 -0.101224 -0.270911 0 0 255
-0.742908 -0.574964 0.059338 204 51 127
-0.177049 -0.616833 -0.119022 255 0 0
-0.719504 0.395931 0.123428 204 51 127
0.387497 0.385424 0.267391 153 0 76
0.315382 -0.640238 0.244583 153 76 0
0.010549 0.594458 0.214731 76 0 153
-0.674762 -0.640238 -0.288490 153 0 76
0.392411 -0.639161 0.249837 153 76 0
0.755029 0.109666 0.214731 127 127 0
-0.371112 0.474397 0.268765 0 127 127
0.057995 0.427626 -0.288464 0 0 255
0.545000 -0.569144 0.284944 153 0 76
0.687708 0.620249 0.249837 76 0 153
-0.420074 0.600195 -0.275413 0 255 0
-0.217071 0.009234 -0.180850 76 0 153
-0.651122 -0.524932 -0.270911 0 0 255
0.778378 -0.390190 -0.166226 153 0 76
-0.742908 0.131550 0.073378 204 51 127
-0.368791 0.327135 -0.270911 0 0 255
-0.565939 0.436686 0.267391 0 127 127
-0.091689 0.367112 0.249837 0 127 127
-0.642682 0.448499 0.249837 0 127 127
0.389135 -0.009744 0.249837 153 0 76
-0.742908 0.020661 -0.259986 204 51 127
0.392132 -0.396650 -0.288464 0 0 255
-0.742908 0.493834 0.002038 204 51 127
0.117713 0.554155 -0.288464 0 0 255
0.619277 0.450410 0.249837 153 0 76
0.552422 0.464537 -0.270911 0 0 255
-0.013876 -0.188772 0.214731 127 0 127
0.079302 -0.005951 -0.270911 76 0 153
-0.500591 -0.574712 0.249837 0 127 127
0.518833 0.154164 -0.270911 0 0 255
-0.016778 -0.593429 -0.054703 255 0 0
-0.094202 0.600195 -0.246121 0 255 0
0.555950 0.377283 0.249837 153 0 76
0.220905 0.210628 0.249837 153 0 76
0.236678 -0.107340 -0.288464 0 0 255
0.754973 0.622640 0.045693 153 0 76
0.313579 0.246184 -0.288464 0 0 255
-0.680159 0.576791 -0.168527 0 255 0
-0.701484 -0.616833 0.209924 255 0 0
-0.742908 0.022482 -0.139262 204 51 127
0.432881 -0.616833 0.178257 255 0 0
-0.044238 0.085875 0.249837 0 127 127
0.778378 -0.360726 -0.282803 153 0 76
-0.350904 -0.640238 -0.297269 153 0 76
0.778378 0.400234 -0.014896 153 0 76
-0.035123 0.206005 -0.288464 0 0 255
0.778378 -0.285286 -0.147101 153 0 76
-0.047071 0.366356 0.249837 0 127 127
-0.585611 -0.025872 -0.065242 76 0 153
0.754973 -0.617800 0.033731 153 0 76
-0.495191 -0.593429 -0.123390 255 0 0
0.778378 -0.613953 0.067092 153 0 76
0.026512 0.474763 0.260403 153 0 76
-0.719504 -0.586174 -0.259316 204 51 127
-0.511682 -0.616833 0.126015 255 0 0
0.194725 -0.616833 -0.029348 255 0 0
-0.728072 -0.250321 0.214731 0 127 127
-0.381195 0.518504 -0.288464 76 153 0
-0.719504 -0.414545 -0.038129 204 51 127
0.604531 0.576791 -0.182379 0 255 0
-0.605617 -0.616833 0.130027 255 0 0
-0.099462 0.576791 -0.226424 0 255 0
0.754973 -0.048889 0.139790 153 0 76
-0.719504 0.277448 0.024612 204 51 127
-0.737746 -0.209986 0.249837 0 127 127
-0.373150 -0.553094 0.249837 0 127 127
0.446774 -0.027765 -0.311868 76 0 153
-0.273131 -0.025872 0.097000 76 0 153
-0.433985 0.623600 0.220167 76 0 153
-0.318208 -0.303483 -0.288464 0 0 255
-0.003076 -0.593429 -0.101444 255 0 0
0.582595 0.507548 0.249837 153 0 76
0.596960 -0.046814 -0.288464 0 0 255
-0.719504 -0.246425 0.132760 204 51 127
0.178288 0.125939 -0.288464 0 0 255
0.689651 0.009234 0.094872 76 0 153
0.536130 -0.616833 0.101177 255 0 0
0.314919 0.009234 -0.100876 76 0 153
0.012631 0.480486 0.214731 127 0 127
0.691070 0.009234 -0.153689 76 0 153
-0.232813 -0.270183 -0.270911 0 0 255
-0.096984 0.472261 0.249837 0 127 127
-0.742908 -0.234101 -0.161664 204 51 127
0.075242 -0.593429 -0.099666 255 0 0
-0.134625 0.004990 -0.311868 76 0 153
-0.146234 -0.042656 0.249837 0 127 127
0.231296 0.028821 -0.270911 0 0 255
0.203733 -0.593429 -0.107499 255 0 0
0.225143 -0.593429 -0.229420 255 0 0
0.156082 -0.616833 -0.260405 255 0 0
0.473227 0.576791 -0.093683 0 255 0
0.081098 0.576791 0.040010 0 255 0
0.547428 0.600195 0.158324 0 255 0
-0.103387 -0.106366 0.284944 0 127 127
0.013174 -0.418276 0.214731 127 0 127
-0.044366 0.576791 -0.085119 0 255 0
0.133514 0.581179 -0.311868 76 153 0
-0.750041 -0.640238 0.225625 0 127 127
0.397772 0.576791 -0.108192 0 255 0
0.179416 -0.593429 0.087448 255 0 0
-0.711037 -0.593429 0.078208 255 0 0
0.481595 0.576791 -0.143692 0 255 0
0.296653 -0.482384 0.249837 153 0 76
-0.742908 0.019964 0.198540 204 51 127
-0.742908 0.388274 -0.255382 204 51 127
-0.383418 0.569174 -0.288464 0 0 255
0.557474 -0.265159 -0.270911 0 0 255
-0.150088 -0.025872 0.125959 76 0 153
-0.074036 0.114510 0.249837 0 127 127
-0.719504 0.031455 0.055485 204 51 127
-0.229289 0.009234 -0.110374 76 0 153
0.481358 0.581113 -0.288464 76 153 0
-0.079273 -0.136012 0.284944 0 127 127
-0.229211 -0.405439 0.267391 0 127 127
-0.458181 0.576791 -0.163062 0 255 0
0.720646 -0.593429 -0.272382 255 0 0
0.754973 -0.098574 -0.109844 153 0 76
0.676975 -0.438059 -0.270911 0 0 255
0.497299 0.623600 0.220833 76 0 153
0.110314 0.417653 0.332540 76 0 153
-0.378574 -0.022918 -0.288464 0 0 255
-0.015429 0.576791 -0.241972 0 255 0
-0.550662 0.479979 0.274105 0 127 127
-0.335221 -0.570024 0.223616 153 76 0
0.679585 0.155063 0.249837 153 0 76
-0.565498 0.292196 -0.288464 0 0 255
0.619608 0.303792 0.249837 153 0 76
0.754973 -0.528548 -0.185170 153 0 76
0.145544 0.292172 0.249837 153 0 76
0.145914 -0.093669 -0.270911 0 0 255
-0.365674 0.009234 0.143163 76 0 153
-0.719504 -0.257437 -0.294655 204 51 127
0.545475 0.576791 0.050536 0 255 0
0.321238 0.576791 -0.234435 0 255 0
-0.381152 0.308454 0.249837 0 127 127
-0.716833 -0.072798 -0.288464 76 0 153
-0.211445 -0.593429 -0.058283 255 0 0
0.778378 -0.594071 -0.113950 153 0 76
0.302400 0.158252 0.267391 153 0 76
-0.742908 0.389943 0.157317 204 51 127
-0.048616 0.600195 0.021728 0 255 0
-0.742908 0.504311 -0.184937 204 51 127
0.137076 0.112238 0.249837 153 0 76
-0.496125 -0.610904 -0.311868 153 0 76
0.754973 -0.231516 -0.238175 153 0 76
-0.448938 -0.593429 -0.258465 255 0 0
0.082772 0.570367 -0.288464 76 153 0
-0.468937 0.009234 -0.267961 76 0 153
-0.131468 -0.353164 0.279850 0 127 127
0.006728 -0.616833 0.029011 255 0 0
0.026512 -0.261949 0.255613 153 0 76
-0.685675 -0.616833 -0.250629 255 0 0
0.310552 -0.594584 -0.311868 153 0 76
0.347208 -0.329716 0.249837 153 0 76
0.057001 0.357978 -0.270911 0 0 255
0.640877 -0.526722 0.283636 153 0 76
0.652878 -0.593429 -0.097866 255 0 0
-0.492692 -0.189892 0.249837 0 127 127
-0.073122 0.576791 -0.104083 0 255 0
0.396135 -0.616833 -0.149481 255 0 0
0.373611 0.009234 0.211658 76 0 153
0.235432 -0.602509 -0.288464 153 0 76
0.754973 0.065525 -0.228135 153 0 76
0.225376 0.576791 0.112722 0 255 0
0.614754 0.220890 -0.288464 0 0 255
0.754973 -0.392747 0.076859 153 0 76
-0.031241 0.381993 -0.270911 0 0 255
0.522616 0.481119 0.249837 153 0 76
-0.692373 0.060960 -0.288464 76 0 153
0.778378 0.515784 -0.282832 153 0 76
0.484984 -0.513103 0.249837 153 0 76
0.150617 -0.183851 0.284944 153 0 76
-0.223933 -0.231354 -0.270911 0 0 255
-0.069790 -0.593429 -0.218030 255 0 0
-0.450569 0.320204 -0.288464 0 0 255
0.572002 0.187990 0.267391 153 0 76
0.778378 0.323470 0.010714 153 0 76
0.258061 -0.025872 0.169209 76 0 153
-0.206778 0.223873 -0.288464 0 0 255
-0.583007 -0.146751 -0.288464 0 0 255
0.428489 -0.025872 0.033891 76 0 153
-0.719504 -0.552663 -0.285393 204 51 127
0.539182 -0.379693 0.249837 153 0 76
-0.333084 -0.493414 0.273589 0 127 127
-0.719504 -0.165719 -0.210948 204 51 127
0.326275 -0.538109 -0.311868 153 0 76
0.613837 -0.277667 -0.270911 0 0 255
-0.200369 0.030227 0.249837 0 127 127
-0.742908 -0.135737 0.107555 204 51 127
0.226130 -0.224820 0.267391 153 0 76
0.754973 0.581145 0.004406 153 0 76
-0.620558 -0.570639 -0.311868 153 0 76
-0.267682 0.147332 0.267391 0 127 127
-0.742908 0.251643 0.046911 204 51 127
-0.079655 0.600195 -0.276918 0 255 0
-0.348624 -0.593429 -0.270970 255 0 0
0.349301 -0.342653 -0.288464 0 0 255
0.008958 0.550603 0.283178 0 127 127
-0.241566 -0.126880 -0.288464 0 0 255
0.054537 -0.609721 -0.311868 153 0 76
-0.042726 0.294394 -0.288464 0 0 255
0.754973 0.104727 -0.184607 153 0 76
0.420224 0.576791 -0.226586 0 255 0
-0.719504 0.297145 0.094396 204 51 127
-0.719504 0.197092 -0.101281 204 51 127
-0.256786 -0.531367 0.249837 0 127 127
0.764967 0.377262 0.249837 153 0 76
0.072207 0.576791 -0.075408 0 255 0
-0.318999 0.320841 0.249837 0 127 127
0.410114 0.238074 -0.270911 0 0 255
0.777013 -0.640238 -0.229377 153 0 76
-0.563200 0.244149 -0.270911 0 0 255
0.518442 0.600195 -0.248650 0 255 0
-0.376315 -0.593429 0.141156 255 0 0
-0.742908 -0.461583 -0.130024 204 51 127
-0.719504 -0.104053 0.125789 204 51 127
-0.387511 0.052927 0.249837 0 127 127
0.754973 0.068935 0.076273 153 0 76
-0.048597 0.405418 0.327170 76 153 0
-0.124203 -0.173039 -0.288464 0 0 255
-0.195372 0.009234 -0.244266 76 0 153
0.615431 0.494049 0.249837 153 0 76
0.754973 -0.600352 -0.019251 153 0 76
0.041256 -0.593429 0.184631 255 0 0
0.149518 0.225872 0.249837 153 0 76
-0.119081 0.600195 0.088338 0 255 0
0.509969 -0.458388 -0.270911 0 0 255
0.377440 0.276133 0.249837 153 0 76
-0.754610 -0.163199 0.245679 0 127 127
-0.719504 -0.051334 -0.232082 204 51 127
-0.171408 0.576791 0.116913 0 255 0
-0.248272 0.380935 0.249837 0 127 127
0.203241 0.339157 0.249837 153 0 76
0.329359 -0.593429 0.070603 255 0 0
0.778378 -0.379122 -0.218077 153 0 76
-0.384457 0.576791 0.110180 0 255 0
0.412449 0.109860 0.267391 153 0 76
0.279037 0.600195 -0.040494 0 255 0
0.471385 -0.616833 0.164356 255 0 0
0.778378 0.354306 0.071954 153 0 76
-0.295620 -0.163318 -0.270911 0 0 255
0.453583 0.013094 -0.311868 76 0 153
-0.517787 -0.593429 0.022956 255 0 0
-0.064507 0.339137 0.249837 0 127 127
0.754973 0.115634 -0.126491 153 0 76
0.708446 -0.494809 -0.270911 0 0 255
-0.595115 -0.621132 -0.288464 153 0 76
0.158920 -0.616833 -0.066074 255 0 0
0.188170 0.555674 0.249837 76 0 153
-0.325936 0.600195 0.161396 0 255 0
0.270690 -0.186318 0.267391 153 0 76
0.114474 0.245688 0.249837 153 0 76
-0.441808 0.474397 0.255266 0 127 127
0.297276 0.600195 0.013220 0 255 0
-0.742908 0.568401 -0.215835 204 51 127
0.292080 0.474397 0.269673 153 0 76
0.754973 -0.293803 -0.310972 153 0 76
0.754973 0.300484 0.154609 153 0 76
-0.524331 0.081687 0.267391 0 127 127
0.078481 0.332355 0.284944 153 0 76
0.366297 -0.444673 -0.270911 0 0 255
-0.638718 -0.593429 -0.194924 255 0 0
-0.428335 0.599832 -0.311868 76 153 0
0.778378 0.577041 0.168294 153 0 76
0.140984 -0.029337 0.249837 153 0 76
0.366615 0.134282 -0.288464 0 0 255
0.461526 -0.073142 -0.311868 76 0 153
-0.651764 0.600195 0.018577 0 255 0
-0.020652 -0.210927 0.249837 0 127 127
-0.353895 -0.463717 0.249837 0 127 127
-0.055681 0.339587 -0.270911 0 0 255
0.628554 0.592310 -0.311868 76 153 0
-0.009989 0.247514 0.284944 0 127 127
-0.719504 0.203875 -0.262738 204 51 127
0.740580 -0.449057 0.249837 127 127 0
-0.751305 -0.055593 0.249837 0 127 127
0.657691 0.555600 0.249837 153 0 76
-0.088812 0.576791 0.180948 0 255 0
-0.034167 0.588956 -0.311868 76 153 0
-0.374927 0.274924 0.267391 0 127 127
0.058545 0.600195 0.003818 0 255 0
-0.742908 -0.528848 0.105986 204 51 127
0.083525 -0.272600 -0.288464 0 0 255
-0.684397 0.349543 0.231084 0 127 127
-0.712806 -0.230133 0.284944 0 127 127
-0.407878 0.009234 -0.004274 76 0 153
0.141369 0.004923 0.249837 153 0 76
-0.022311 0.609431 0.284944 0 127 127
0.147141 -0.555789 -0.311868 153 0 76
0.644757 0.600195 -0.020945 0 255 0
-0.445221 0.532177 0.249837 0 127 127
-0.151173 -0.593429 -0.174402 255 0 0
-0.639024 -0.639397 -0.288464 153 0 76
0.772243 -0.566023 0.214731 127 127 0
-0.020497 0.497911 -0.288464 76 153 0
-0.742908 -0.452320 -0.032445 204 51 127
0.630654 -0.593429 0.212270 255 0 0
-0.442529 -0.207564 0.267391 0 127 127
0.545776 -0.025872 0.194394 76 0 153
-0.426992 0.316887 0.267391 0 127 127
-0.525185 0.600195 -0.201634 0 255 0
0.111748 0.453552 -0.288464 0 0 255
-0.362723 0.576791 0.055778 0 255 0
-0.488734 0.600195 -0.279365 0 255 0
-0.719504 -0.107905 -0.085472 204 51 127
-0.067243 0.560087 -0.288464 76 153 0
0.506545 0.397005 0.249837 153 0 76
0.181401 -0.031584 -0.311868 76 0 153
-0.365586 0.294553 -0.288464 0 0 255
0.754973 -0.479056 0.113590 153 0 76
0.408210 0.600195 0.141396 0 255 0
-0.170554 -0.545139 0.249837 0 127 127
0.100502 -0.640238 0.215129 153 76 0
0.477382 0.555113 -0.270911 0 0 255
0.243593 -0.243407 0.249837 153 0 76
-0.614101 -0.593429 -0.030091 255 0 0
0.047557 -0.082962 -0.270911 0 0 255
-0.341405 0.314970 -0.270911 0 0 255
0.684162 -0.616833 -0.274504 255 0 0
-0.742908 0.124074 -0.109724 204 51 127
-0.569063 0.064271 0.267391 0 127 127
0.680248 0.576791 -0.102545 0 255 0
-0.719504 0.331681 -0.053250 204 51 127
0.428172 0.610356 0.249837 76 0 153
0.596458 -0.593429 -0.256280 255 0 0
0.603330 0.280888 0.267391 153 0 76
0.754973 0.280957 -0.129308 153 0 76
-0.544796 0.597437 -0.288464 76 153 0
-0.485831 -0.025872 -0.148465 76 0 153
0.238465 -0.577606 0.284944 153 0 76
0.232372 0.510716 -0.270911 0 0 255
0.332484 -0.616833 0.050006 255 0 0
-0.392072 -0.616833 -0.132137 255 0 0
-0.000366 -0.616833 -0.119922 255 0 0
-0.183404 0.009234 0.129959 76 0 153
-0.719504 -0.345138 0.146345 204 51 127
0.440492 -0.593429 -0.253011 255 0 0
0.756769 -0.438427 -0.311868 153 0 76
-0.719504 0.489170 -0.212227 204 51 127
-0.412406 -0.025872 0.161135 76 0 153
0.754973 0.493644 0.011987 153 0 76
0.026512 0.609763 0.251741 153 0 76
0.004258 0.009234 -0.098041 76 0 153
-0.449415 -0.059637 0.267391 0 127 127
0.450941 0.600195 -0.242243 0 255 0
-0.375165 0.117255 -0.288464 0 0 255
-0.187831 -0.593429 0.163771 255 0 0
0.066083 0.339350 0.249837 153 0 76
-0.167097 0.155970 0.249837 0 127 127
-0.742908 0.617075 0.048586 204 51 127
0.754973 0.544687 -0.101479 153 0 76
-0.132785 -0.030355 -0.288464 76 0 153
-0.223441 -0.025872 -0.133087 76 0 153
-0.359195 -0.351319 0.267391 0 127 127
-0.158490 0.357821 0.267391 0 127 127
-0.037775 0.577268 0.214731 76 0 153
-0.435897 -0.033770 -0.270911 0 0 255
-0.292463 0.301505 0.267391 0 127 127
0.007589 -0.249421 -0.288464 0 0 255
-0.004874 0.009234 0.201609 76 0 153
-0.387345 -0.191019 0.249837 0 127 127
0.434115 -0.026364 0.249837 153 0 76
0.250196 -0.616833 0.019245 255 0 0
0.513438 -0.593429 -0.272151 255 0 0
-0.373988 0.535633 -0.311868 76 153 0
-0.715554 0.600195 0.021821 0 255 0
-0.066658 0.244832 -0.270911 0 0 255
-0.330694 0.608703 -0.311868 76 153 0
-0.656142 0.489151 -0.270911 0 0 255
-0.641667 0.176587 0.249837 0 127 127
0.754973 0.258414 0.086464 153 0 76
0.184447 -0.065634 0.267391 153 0 76
0.152686 -0.640238 0.235283 153 76 0
-0.742908 0.184928 0.053979 204 51 127
-0.212339 0.600195 -0.177903 0 255 0
-0.719504 -0.031631 -0.104476 204 51 127
-0.462425 0.229366 -0.270911 0 0 255
0.108455 0.379689 -0.288464 0 0 255
-0.201832 0.275602 0.267391 0 127 127
0.754334 0.009234 -0.074770 76 0 153
0.754973 -0.012249 -0.115631 153 0 76
-0.310628 -0.593429 -0.122351 255 0 0
0.186887 -0.246354 -0.270911 0 0 255
0.512961 -0.593429 -0.025086 255 0 0
-0.577375 0.576791 -0.117566 0 255 0
-0.461224 -0.025872 0.138896 76 0 153
-0.337248 0.581731 -0.288464 76 153 0
0.458687 -0.250048 -0.288464 0 0 255
0.633253 -0.308295 0.249837 153 0 76
0.215475 -0.110572 0.249837 153 0 76
-0.107771 0.553645 -0.288464 76 153 0
0.671980 -0.262062 0.284944 153 0 76
-0.742908 -0.192797 -0.059697 204 51 127
-0.282292 -0.023058 -0.288464 76 0 153
0.097711 0.154550 -0.270911 0 0 255
-0.453097 0.104253 0.267391 0 127 127
-0.104339 -0.025872 0.183496 76 0 153
0.419096 0.600195 -0.252378 0 255 0
0.672571 -0.593429 0.019546 255 0 0
-0.318514 0.383105 0.267391 0 127 127
0.577659 0.452955 0.249837 153 0 76
0.499290 0.009234 -0.027007 76 0 153
0.087608 -0.025872 0.197042 76 0 153
0.754973 -0.315983 0.202930 153 0 76
0.307540 0.482659 -0.288464 0 0 255
0.778378 0.130469 0.130780 153 0 76
0.448330 -0.543723 -0.288464 0 0 255
0.778378 -0.559404 -0.017886 153 0 76
0.742044 -0.108224 -0.270911 0 0 255
0.754973 -0.237878 0.145885 153 0 76
0.444542 -0.554050 0.284944 153 0 76
-0.742908 0.403034 0.004701 204 51 127
0.565095 -0.616833 -0.208162 255 0 0
0.338737 0.267464 0.249837 153 0 76
0.754973 0.472466 -0.040218 153 0 76
-0.372830 -0.100658 0.249837 0 127 127
-0.649449 0.080693 0.284944 0 127 127
0.425959 -0.345062 0.249837 153 0 76
0.364742 0.576791 -0.257362 0 255 0
-0.591096 0.194003 -0.288464 0 0 255
0.790080 0.469996 0.231130 127 127 0
-0.742908 0.520809 0.052312 204 51 127
-0.683133 0.588892 0.214731 76 0 153
-0.277354 -0.129380 -0.288464 0 0 255
-0.342465 0.153868 -0.270911 0 0 255
0.597306 0.501238 -0.311868 76 153 0
0.467510 0.009234 0.028452 76 0 153
-0.573911 -0.616833 -0.056076 255 0 0
-0.742908 -0.223130 0.076343 204 51 127
-0.119857 -0.025872 -0.035102 76 0 153
0.270342 -0.636960 0.249837 153 76 0
0.393499 0.600195 0.039856 0 255 0
0.083534 -0.368159 0.249837 127 0 127
-0.255931 -0.616833 -0.281986 255 0 0
0.754973 -0.244374 0.011254 153 0 76
0.620157 -0.370914 -0.288464 0 0 255
-0.597910 0.433746 0.267391 0 127 127
-0.072930 0.019075 0.284944 0 127 127
0.292478 -0.367957 0.267391 153 0 76
0.377035 0.009234 0.006956 76 0 153
0.493455 -0.593429 0.050739 255 0 0
-0.362883 -0.495812 -0.288464 0 0 255
-0.390335 -0.025872 -0.243338 76 0 153
-0.653851 0.600195 -0.188674 0 255 0
0.707100 -0.524952 -0.311868 153 0 76
-0.392468 0.531843 0.284944 0 127 127
-0.742908 -0.146928 -0.048884 204 51 127
0.490323 0.576791 0.095258 0 255 0
-0.244047 -0.244035 0.249837 0 127 127
-0.285294 -0.025872 -0.178358 76 0 153
-0.487011 0.474397 0.272933 0 127 127
0.420408 -0.387675 0.249837 153 0 76
-0.379033 -0.616833 -0.206340 255 0 0
0.754973 0.508374 0.051147 153 0 76
0.026512 -0.630583 0.270796 153 0 76
0.454541 -0.616833 -0.124637 255 0 0
0.491479 -0.593429 -0.130128 255 0 0
0.693968 0.312142 0.249837 153 0 76
-0.540628 0.217024 0.249837 0 127 127
0.754973 -0.096668 0.156496 153 0 76
-0.391575 0.319971 -0.288464 0 0 255
0.215068 -0.616833 -0.001055 255 0 0
0.266190 -0.616833 -0.011587 255 0 0
0.366705 0.602190 -0.288464 76 153 0
-0.631341 0.614823 0.280588 0 127 127
0.754973 -0.517447 0.135527 153 0 76
0.177608 0.343096 0.267391 153 0 76
-0.589031 -0.616833 -0.211709 255 0 0
0.754973 -0.164164 0.105830 153 0 76
0.147039 0.548032 -0.311868 76 153 0
0.319269 0.504787 0.278104 153 0 76
-0.076781 0.343218 0.334828 76 153 0
-0.669594 0.150907 -0.270911 0 0 255
-0.406204 0.241251 -0.270911 0 0 255
-0.685925 0.492121 0.249837 0 127 127
0.406166 -0.593429 0.060278 255 0 0
0.778378 -0.431469 0.114587 153 0 76
0.747691 0.576791 -0.103238 0 255 0
0.601498 0.600195 -0.149297 0 255 0
0.660587 -0.067037 0.284944 153 0 76
0.754973 -0.359874 0.083260 153 0 76
-0.062021 -0.593020 -0.288464 153 0 76
-0.685203 0.066319 0.249837 0 127 127
0.778378 -0.258374 0.089681 153 0 76
-0.044326 -0.073649 -0.311868 76 0 153
0.754973 -0.565396 0.097279 153 0 76
0.550390 0.344889 -0.270911 0 0 255
