ply
format ascii 1.0
element vertex 614
property float x
property float y
property float z
property float nx
property float ny
property float nz
property uchar red
property uchar green
property uchar blue
property float opacity
end_header
0.693659 0.461256 -0.288464 0.000000 -0.000000 -1.000000 245 204 146 1.000000
0.719867 0.311685 0.245052 1.000000 0.000000 0.000000 255 255 255 1.000000
-0.742908 -0.175738 0.143559 1.000000 0.000000 0.000000 255 255 255 1.000000
-0.131053 0.064664 0.284944 0.000000 0.000000 1.000000 248 235 215 1.000000
-0.084854 0.009234 -0.096389 0.000000 -1.000000 0.000000 255 255 255 1.000000
0.365575 -0.005224 0.214731 0.000000 0.000000 1.000000 247 210 151 1.000000
-0.719504 0.500350 -0.152904 -1.000000 -0.000000 0.000000 255 255 255 1.000000
0.562005 0.009234 -0.049461 0.000000 -1.000000 0.000000 255 255 255 1.000000
0.014853 0.009234 -0.223762 -0.000000 1.000000 -0.000000 243 206 147 1.000000
0.778378 0.041810 0.006515 1.000000 0.000000 0.000000 248 235 215 1.000000
-0.131119 0.244978 -0.288464 0.000000 -0.000000 -1.000000 237 200 141 1.000000
-0.095438 -0.616833 0.141582 -0.000000 1.000000 -0.000000 255 255 255 1.000000
0.462403 -0.261687 -0.288464 0.000000 0.000000 1.000000 221 221 221 1.000000
0.484636 0.215898 0.249837 0.000000 -0.000000 -1.000000 248 235 215 1.000000
-0.742908 -0.534444 -0.278696 1.000000 0.000000 0.000000 255 255 255 1.000000
-0.742908 -0.075982 -0.239893 -1.000000 -0.000000 0.000000 248 235 215 1.000000
-0.682917 -0.593429 0.152839 0.000000 -1.000000 0.000000 255 255 255 1.000000
-0.742908 0.458656 0.002473 -1.000000 -0.000000 0.000000 248 235 215 1.000000
-0.652696 -0.616833 0.086175 0.000000 -1.000000 0.000000 242 206 142 1.000000
0.166343 0.600195 0.157640 0.000000 -1.000000 0.000000 255 255 255 1.000000
0.011576 -0.616833 0.162427 0.000000 -1.000000 0.000000 250 213 154 1.000000
0.617520 0.321918 0.249837 0.000000 -0.000000 -1.000000 248 235 215 1.000000
-0.490375 0.600195 0.198446 0.000000 -1.000000 0.000000 255 255 255 1.000000
-0.506998 -0.593429 0.084490 0.000000 -1.000000 0.000000 255 255 255 1.000000
-0.682042 -0.219930 0.249837 0.000000 -0.000000 -1.000000 248 235 215 1.000000
-0.469872 0.285320 0.267391 0.000000 -0.000000 -1.000000 255 255 255 1.000000
-0.742908 -0.007203 -0.229768 1.000000 0.000000 0.000000 255 255 255 1.000000
0.389756 0.265000 -0.270911 0.000000 -0.000000 -1.000000 255 255 255 1.000000
-0.102528 0.139701 -0.288464 0.000000 0.000000 1.000000 255 255 255 1.000000
-0.742908 -0.064083 0.066502 1.000000 0.000000 0.000000 255 255 255 1.000000
0.778378 0.444537 -0.288667 1.000000 0.000000 0.000000 248 235 215 1.000000
0.317025 0.114230 0.267391 0.000000 0.000000 1.000000 248 235 215 1.000000
-0.591359 -0.269163 0.267391 0.000000 0.000000 1.000000 248 235 215 1.000000
0.778378 -0.614433 -0.209622 -1.000000 -0.000000 0.000000 255 255 255 1.000000
0.295260 -0.050492 -0.288464 0.000000 -0.000000 -1.000000 255 255 255 1.000000
-0.369375 0.569901 0.284944 -0.000000 0.058759 -0.998272 255 255 255 1.000000
0.732336 -0.593429 -0.181414 0.000000 -1.000000 0.000000 255 255 255 1.000000
0.292720 0.287055 -0.270911 0.000000 -0.000000 -1.000000 255 255 255 1.000000
0.778378 0.300474 -0.141515 -1.000000 -0.000000 0.000000 255 255 255 1.000000
-0.230170 -0.124059 -0.270911 0.000000 -0.000000 -1.000000 255 255 255 1.000000
-0.073263 -0.025872 0.086004 0.000000 -1.000000 0.000000 243 211 150 1.000000
0.403337 0.009234 0.206561 -0.000000 1.000000 -0.000000 248 211 152 1.000000
-0.742908 -0.515658 -0.232514 -1.000000 -0.000000 0.000000 248 235 215 1.000000
-0.242987 -0.529239 0.283720 0.000000 -0.827918 -0.560848 255 255 255 1.000000
-0.088786 0.600195 0.094537 -0.000000 1.000000 -0.000000 246 203 146 1.000000
0.754973 -0.546624 0.160826 1.000000 0.000000 0.000000 255 255 255 1.000000
-0.634590 0.009234 -0.084691 0.000000 -1.000000 0.000000 255 255 255 1.000000
-0.305689 0.600195 0.007643 0.000000 -1.000000 0.000000 255 255 255 1.000000
-0.556026 0.600195 0.053583 -0.000000 1.000000 -0.000000 244 207 148 1.000000
-0.717770 0.165375 0.249837 0.000000 0.000000 1.000000 248 235 215 1.000000
-0.719504 -0.321193 -0.123925 -1.000000 -0.000000 0.000000 255 255 255 1.000000
0.778378 0.343817 0.117767 -1.000000 -0.000000 0.000000 255 255 255 1.000000
0.325117 0.009234 0.120343 -0.000000 1.000000 -0.000000 246 209 150 1.000000
0.572539 0.009234 -0.246219 -0.000000 1.000000 -0.000000 241 213 151 1.000000
-0.492756 0.576791 -0.072951 0.000000 -1.000000 0.000000 238 201 142 1.000000
0.411060 -0.593429 -0.215592 0.000000 -1.000000 0.000000 255 255 255 1.000000
0.083600 -0.536717 0.249837 0.000000 -0.000000 -1.000000 248 235 215 1.000000
-0.491203 -0.019319 -0.288464 0.000000 -0.000000 -1.000000 255 255 255 1.000000
-0.298870 0.475662 0.273409 -0.000000 0.746891 -0.664946 255 255 255 1.000000
0.419010 0.600195 -0.077270 0.000000 -1.000000 0.000000 255 255 255 1.000000
-0.742908 0.448071 -0.110450 1.000000 0.000000 0.000000 255 255 255 1.000000
0.562875 -0.616833 -0.243857 0.000000 -1.000000 0.000000 245 208 149 1.000000
-0.733686 0.602697 0.249837 0.000000 -0.000000 -1.000000 248 235 215 1.000000
0.691433 0.220147 -0.270911 0.000000 -0.000000 -1.000000 255 255 255 1.000000
-0.125627 0.576791 0.087872 -0.000000 1.000000 -0.000000 255 255 255 1.000000
0.058689 -0.134897 0.284944 0.000000 0.000000 1.000000 248 235 215 1.000000
0.660014 -0.472418 0.249837 0.000000 -0.000000 -1.000000 248 235 215 1.000000
0.492555 -0.616833 -0.174677 -0.000000 1.000000 -0.000000 255 255 255 1.000000
0.778378 0.406538 -0.237604 1.000000 0.000000 0.000000 248 235 215 1.000000
0.778378 0.055420 0.098681 -1.000000 -0.000000 0.000000 255 255 255 1.000000
-0.742908 -0.110731 0.137894 1.000000 0.000000 0.000000 255 255 255 1.000000
0.778378 -0.565381 -0.089393 -1.000000 -0.000000 0.000000 255 255 255 1.000000
0.207937 -0.634836 -0.288464 0.000000 0.000000 1.000000 240 208 147 1.000000
0.199946 0.214486 -0.288464 0.000000 -0.000000 -1.000000 241 210 144 1.000000
-0.253656 -0.616833 0.066456 -0.000000 1.000000 -0.000000 255 255 255 1.000000
-0.619725 -0.261268 -0.270911 0.000000 0.000000 1.000000 248 211 152 1.000000
0.063209 -0.593429 -0.236415 0.000000 -1.000000 0.000000 255 255 255 1.000000
-0.280686 -0.031107 0.249837 0.000000 -0.000000 -1.000000 248 235 215 1.000000
-0.595141 0.467853 0.267391 0.000000 -0.000000 -1.000000 255 255 255 1.000000
-0.410828 0.600195 0.184653 0.000000 -1.000000 0.000000 255 255 255 1.000000
-0.336872 -0.025872 0.004165 -0.000000 1.000000 -0.000000 255 255 255 1.000000
-0.319410 -0.593429 -0.055957 0.000000 -1.000000 0.000000 255 255 255 1.000000
-0.577469 0.600195 0.016546 0.000000 -1.000000 0.000000 255 255 255 1.000000
-0.684397 -0.507301 0.230129 1.000000 0.000000 0.000000 248 235 215 1.000000
0.460129 0.600195 0.061992 -0.000000 1.000000 -0.000000 247 210 151 1.000000
-0.681077 0.600195 -0.151174 -0.000000 1.000000 -0.000000 239 202 143 1.000000
0.675476 0.576791 0.002107 0.000000 -1.000000 0.000000 245 208 149 1.000000
0.604081 -0.025872 0.058689 0.000000 -1.000000 0.000000 244 207 148 1.000000
-0.520428 -0.616833 -0.183797 0.000000 -1.000000 0.000000 239 203 139 1.000000
-0.020842 -0.616833 0.159339 -0.000000 1.000000 -0.000000 255 255 255 1.000000
-0.556670 -0.025872 -0.188012 -0.000000 1.000000 -0.000000 255 255 255 1.000000
0.172585 -0.593429 0.086250 0.000000 -1.000000 0.000000 255 255 255 1.000000
-0.719504 0.281108 -0.249460 -1.000000 -0.000000 0.000000 255 255 255 1.000000
-0.719504 -0.046720 -0.283700 1.000000 0.000000 0.000000 239 207 146 1.000000
0.538026 -0.593429 0.194289 -0.000000 1.000000 -0.000000 245 208 149 1.000000
-0.742908 -0.021954 -0.074612 1.000000 0.000000 0.000000 255 255 255 1.000000
-0.288642 -0.628800 0.214731 0.000000 -0.000000 -1.000000 242 205 146 1.000000
-0.386038 0.576791 0.159199 0.000000 -1.000000 0.000000 247 210 151 1.000000
-0.007164 -0.605768 0.249837 0.000000 -0.000000 -1.000000 255 255 255 1.000000
0.573594 0.221338 0.267391 0.000000 0.000000 1.000000 248 235 215 1.000000
-0.555129 -0.499811 -0.301548 -0.000000 1.000000 -0.000000 242 213 157 1.000000
0.086424 -0.049398 0.214731 0.000000 -0.000000 -1.000000 243 210 155 1.000000
-0.265175 -0.025872 -0.040568 0.000000 -1.000000 0.000000 243 207 143 1.000000
0.166938 -0.151115 0.270413 -1.000000 -0.000000 0.000000 255 255 255 1.000000
-0.245182 -0.148134 -0.288464 0.000000 0.000000 1.000000 255 255 255 1.000000
0.754973 -0.329773 0.189070 -1.000000 -0.000000 0.000000 242 206 142 1.000000
-0.275006 0.576791 0.071192 0.000000 -1.000000 0.000000 249 211 152 1.000000
0.633053 -0.022292 0.249837 0.000000 0.000000 1.000000 255 255 255 1.000000
-0.666859 -0.160664 -0.288464 0.000000 0.000000 1.000000 255 255 255 1.000000
0.225042 0.127773 -0.270911 0.000000 0.000000 1.000000 244 208 144 1.000000
0.778378 0.361282 -0.236708 -1.000000 -0.000000 0.000000 255 255 255 1.000000
-0.742908 0.321311 -0.029251 1.000000 0.000000 0.000000 255 255 255 1.000000
-0.719504 0.264004 -0.184648 -1.000000 -0.000000 0.000000 255 255 255 1.000000
-0.357953 -0.025872 0.062973 0.000000 -1.000000 0.000000 246 209 150 1.000000
-0.547113 0.009234 -0.038617 -0.000000 1.000000 -0.000000 242 206 142 1.000000
0.149587 0.236074 -0.288464 0.000000 0.000000 1.000000 255 255 255 1.000000
-0.260900 0.389644 0.267391 0.000000 -0.000000 -1.000000 255 255 255 1.000000
-0.619915 -0.593429 0.147869 -0.000000 1.000000 -0.000000 243 206 147 1.000000
0.332959 0.244295 0.249837 0.000000 -0.000000 -1.000000 248 235 215 1.000000
-0.263147 -0.593429 0.187682 -0.000000 1.000000 -0.000000 248 210 151 1.000000
0.513384 -0.616833 0.146633 0.000000 -1.000000 0.000000 248 211 152 1.000000
-0.010641 -0.494528 0.249837 0.000000 -0.000000 -1.000000 248 235 215 1.000000
0.754973 0.600664 0.144281 1.000000 0.000000 0.000000 255 255 255 1.000000
-0.312199 0.261819 -0.270911 0.000000 0.000000 1.000000 250 213 154 1.000000
0.781303 -0.258166 0.257155 -1.000000 -0.000000 0.000000 255 255 255 1.000000
0.404933 -0.593429 0.154483 -0.000000 1.000000 -0.000000 247 210 151 1.000000
-0.516145 -0.427148 0.267391 0.000000 0.000000 1.000000 248 235 215 1.000000
-0.574442 0.576791 -0.201700 -0.000000 1.000000 -0.000000 255 255 255 1.000000
0.438342 -0.570024 0.214930 -0.000000 1.000000 -0.000000 248 235 215 1.000000
-0.719504 -0.234209 -0.053165 -1.000000 -0.000000 0.000000 255 255 255 1.000000
-0.742908 -0.604144 0.213656 -1.000000 -0.000000 0.000000 248 235 215 1.000000
0.754973 0.002998 0.159956 1.000000 0.000000 0.000000 255 255 255 1.000000
0.600687 0.576791 -0.045950 -0.000000 1.000000 -0.000000 255 255 255 1.000000
-0.445839 0.553386 0.249828 -0.000000 1.000000 -0.000000 255 255 255 1.000000
0.134588 -0.275797 0.249837 0.000000 -0.000000 -1.000000 248 235 215 1.000000
0.706729 0.576791 0.053743 -0.000000 1.000000 -0.000000 255 255 255 1.000000
0.114524 -0.025872 0.156725 -0.000000 1.000000 -0.000000 255 255 255 1.000000
-0.699463 0.549305 0.249837 0.000000 0.000000 1.000000 255 255 255 1.000000
0.719867 0.579742 0.242781 1.000000 0.000000 0.000000 255 255 255 1.000000
0.291380 -0.590864 0.249837 0.000000 -0.000000 -1.000000 255 255 255 1.000000
-0.610429 -0.593429 -0.025316 0.000000 -1.000000 0.000000 255 255 255 1.000000
0.778378 -0.299651 -0.021736 1.000000 0.000000 0.000000 248 235 215 1.000000
0.518896 -0.025872 -0.067088 -0.000000 1.000000 -0.000000 255 255 255 1.000000
-0.219168 -0.180980 -0.288464 0.000000 0.000000 1.000000 255 255 255 1.000000
0.367842 -0.025872 0.121926 0.000000 -1.000000 0.000000 241 204 145 1.000000
0.000835 -0.143903 0.284944 0.000000 -0.000000 -1.000000 255 255 255 1.000000
-0.714896 0.248931 0.284944 0.000000 0.000000 1.000000 248 235 215 1.000000
0.706729 -0.289971 0.284944 0.000000 0.000000 1.000000 248 235 215 1.000000
-0.544470 -0.025872 -0.139124 0.000000 -1.000000 0.000000 246 204 140 1.000000
0.239724 0.600195 -0.230825 0.000000 -1.000000 0.000000 255 255 255 1.000000
0.141621 -0.016514 -0.270911 0.000000 0.000000 1.000000 239 203 139 1.000000
-0.742908 -0.626660 -0.268484 1.000000 0.000000 0.000000 255 255 255 1.000000
-0.718308 0.600195 0.088515 0.000000 -1.000000 0.000000 255 255 255 1.000000
0.754973 0.286678 -0.249051 1.000000 0.000000 0.000000 255 255 255 1.000000
0.714400 0.246006 0.249837 0.000000 -0.000000 -1.000000 248 235 215 1.000000
-0.540542 -0.616833 -0.010699 -0.000000 1.000000 -0.000000 255 255 255 1.000000
0.474250 0.187547 0.267391 0.000000 -0.000000 -1.000000 255 255 255 1.000000
-0.307565 0.558932 -0.311868 0.000000 0.000000 1.000000 255 255 255 1.000000
0.479804 0.494770 -0.288464 0.000000 0.000000 1.000000 243 211 150 1.000000
-0.040630 0.547606 0.249837 0.000000 -0.000000 -1.000000 255 255 255 1.000000
0.754973 0.508311 -0.232785 1.000000 0.000000 0.000000 255 255 255 1.000000
0.778378 -0.257067 -0.142020 1.000000 0.000000 0.000000 248 235 215 1.000000
-0.693485 0.514907 -0.270911 0.000000 -0.000000 -1.000000 255 255 255 1.000000
0.778378 0.479520 -0.015555 1.000000 0.000000 0.000000 248 235 215 1.000000
-0.247620 -0.593429 -0.104013 0.000000 -1.000000 0.000000 255 255 255 1.000000
-0.289949 0.519208 -0.288464 0.000000 0.000000 1.000000 244 216 154 1.000000
-0.696041 -0.616833 -0.071025 0.000000 -1.000000 0.000000 242 205 146 1.000000
-0.224337 0.600195 -0.219889 -0.000000 1.000000 -0.000000 246 209 150 1.000000
0.163460 -0.593429 0.185407 -0.000000 1.000000 -0.000000 241 209 148 1.000000
0.345890 0.009234 0.187477 0.000000 -1.000000 0.000000 255 255 255 1.000000
0.710184 -0.616833 -0.193298 0.000000 -1.000000 0.000000 248 211 152 1.000000
0.525713 -0.334887 -0.288464 0.000000 0.000000 1.000000 255 255 255 1.000000
0.485760 -0.005976 -0.288464 0.000000 -0.000000 -1.000000 255 255 255 1.000000
-0.159104 0.336299 -0.270911 0.000000 -0.000000 -1.000000 255 255 255 1.000000
0.687474 0.268342 -0.270911 0.000000 0.000000 1.000000 244 207 148 1.000000
-0.360416 -0.531829 0.249837 0.000000 -0.000000 -1.000000 248 235 215 1.000000
-0.468203 0.600195 -0.278169 -0.000000 1.000000 -0.000000 245 208 149 1.000000
-0.229002 0.061894 -0.309348 0.000000 -1.000000 0.000000 255 255 255 1.000000
0.348775 -0.068993 -0.270911 0.000000 -0.000000 -1.000000 255 255 255 1.000000
-0.173469 -0.372348 -0.270911 0.000000 0.000000 1.000000 245 208 149 1.000000
0.399942 0.589580 0.214731 0.000000 -0.000000 -1.000000 244 202 140 1.000000
0.584591 -0.009300 -0.288464 0.000000 -0.000000 -1.000000 243 206 147 1.000000
-0.575137 -0.587309 -0.270911 0.000000 0.000000 1.000000 245 208 149 1.000000
-0.742908 -0.319041 0.064977 -1.000000 -0.000000 0.000000 248 235 215 1.000000
-0.184684 0.428210 0.249837 0.000000 -0.000000 -1.000000 248 235 215 1.000000
-0.576864 -0.078532 -0.299543 0.000000 -1.000000 0.000000 244 212 151 1.000000
0.239908 -0.497613 -0.288464 0.000000 0.000000 1.000000 255 255 255 1.000000
-0.556952 0.576791 -0.038724 0.000000 -1.000000 0.000000 246 209 150 1.000000
0.725195 -0.614070 -0.288464 0.000000 -0.000000 -1.000000 255 255 255 1.000000
-0.719504 0.161958 -0.031654 -1.000000 -0.000000 0.000000 255 255 255 1.000000
-0.184149 0.576791 -0.260956 0.000000 -1.000000 0.000000 239 202 143 1.000000
-0.540286 0.195044 0.249837 0.000000 0.000000 1.000000 255 255 255 1.000000
-0.077349 0.349587 0.328558 0.995547 0.004570 -0.094153 255 255 255 1.000000
-0.719366 0.368131 0.284944 0.000000 -0.000000 -1.000000 255 255 255 1.000000
-0.483702 -0.025872 -0.159386 -0.000000 1.000000 -0.000000 255 255 255 1.000000
0.092698 0.600195 -0.011423 -0.000000 1.000000 -0.000000 247 210 151 1.000000
0.048157 0.071105 -0.270911 0.000000 0.000000 1.000000 245 213 152 1.000000
0.600026 -0.616833 0.071849 0.000000 -1.000000 0.000000 248 216 155 1.000000
0.603133 -0.160882 0.267391 0.000000 0.000000 1.000000 248 235 215 1.000000
-0.133908 0.576791 0.049169 -0.000000 1.000000 -0.000000 255 255 255 1.000000
-0.378258 0.474856 0.249837 0.000000 -0.000000 -1.000000 248 235 215 1.000000
-0.719504 0.479695 0.139744 -1.000000 -0.000000 0.000000 255 255 255 1.000000
0.249013 -0.389069 0.249837 0.000000 -0.000000 -1.000000 248 235 215 1.000000
-0.234947 -0.025872 -0.145373 0.000000 -1.000000 0.000000 240 202 143 1.000000
-0.591181 0.413513 0.249837 0.000000 -0.000000 -1.000000 248 235 215 1.000000
0.558034 0.127053 0.249837 0.000000 -0.000000 -1.000000 248 235 215 1.000000
-0.719504 -0.120155 0.158084 1.000000 0.000000 0.000000 244 207 148 1.000000
0.001838 -0.616833 0.080617 0.000000 -1.000000 0.000000 247 215 154 1.000000
0.318572 -0.593429 0.091514 -0.000000 1.000000 -0.000000 246 216 154 1.000000
-0.325797 0.009234 -0.095616 -0.000000 1.000000 -0.000000 245 208 149 1.000000
0.232250 -0.025872 -0.124242 -0.000000 1.000000 -0.000000 255 255 255 1.000000
0.778378 0.284760 -0.291246 1.000000 0.000000 0.000000 248 235 215 1.000000
-0.464586 0.600195 -0.167749 -0.000000 1.000000 -0.000000 241 211 149 1.000000
-0.359831 0.358060 -0.288464 0.000000 0.000000 1.000000 255 255 255 1.000000
-0.678645 -0.380334 0.249837 0.000000 -0.000000 -1.000000 248 235 215 1.000000
-0.493362 -0.221417 -0.288464 0.000000 0.000000 1.000000 255 255 255 1.000000
-0.349459 0.009234 0.200371 0.000000 -1.000000 0.000000 255 255 255 1.000000
-0.107182 -0.098914 0.249837 0.000000 0.000000 1.000000 255 255 255 1.000000
0.754973 -0.228529 0.159097 -1.000000 -0.000000 0.000000 243 207 143 1.000000
0.363465 0.600195 -0.090941 0.000000 -1.000000 0.000000 255 255 255 1.000000
0.722265 -0.080515 0.249837 0.000000 -0.000000 -1.000000 255 255 255 1.000000
0.605745 0.499775 0.277296 0.000000 -0.376240 0.926522 248 235 215 1.000000
-0.366381 0.041782 0.249837 0.000000 0.000000 1.000000 255 255 255 1.000000
0.034072 0.576791 0.176496 -0.000000 1.000000 -0.000000 255 255 255 1.000000
-0.742908 0.284659 -0.227085 -1.000000 -0.000000 0.000000 248 235 215 1.000000
-0.701917 -0.539786 -0.311868 0.000000 -0.000000 -1.000000 249 212 153 1.000000
0.089579 0.029847 -0.288464 0.000000 0.000000 1.000000 243 211 150 1.000000
0.264268 -0.064872 0.249837 0.000000 0.000000 1.000000 255 255 255 1.000000
-0.577419 -0.640238 0.225384 0.000000 -1.000000 0.000000 248 235 215 1.000000
0.420454 0.492138 0.249837 -0.000000 0.000000 1.000000 255 255 255 1.000000
0.477646 0.587886 -0.311868 0.000000 0.000000 1.000000 255 255 255 1.000000
-0.392390 -0.309040 -0.270911 0.000000 0.000000 1.000000 240 203 144 1.000000
0.337814 0.003432 -0.288464 0.000000 -0.000000 -1.000000 255 255 255 1.000000
0.571650 0.512291 0.282949 -0.000000 0.941889 -0.335923 255 255 255 1.000000
0.026512 0.073930 0.282594 -1.000000 -0.000000 0.000000 248 235 215 1.000000
-0.510075 0.600195 -0.024887 0.000000 -1.000000 0.000000 255 255 255 1.000000
0.656235 0.364253 0.249837 0.000000 0.000000 1.000000 255 255 255 1.000000
-0.564753 0.090270 0.267391 0.000000 -0.000000 -1.000000 255 255 255 1.000000
0.754973 -0.420431 0.040258 1.000000 0.000000 0.000000 255 255 255 1.000000
-0.650528 -0.059369 0.249837 0.000000 -0.000000 -1.000000 248 235 215 1.000000
0.286820 0.600195 0.062366 0.000000 -1.000000 0.000000 255 255 255 1.000000
-0.742908 0.174534 0.183991 1.000000 0.000000 0.000000 255 255 255 1.000000
-0.121541 0.576791 -0.071152 -0.000000 1.000000 -0.000000 255 255 255 1.000000
-0.719504 -0.616729 -0.132399 1.000000 0.000000 0.000000 245 217 155 1.000000
0.163820 -0.025872 0.156946 0.000000 -1.000000 0.000000 244 212 151 1.000000
0.007839 0.204122 0.284944 0.000000 0.000000 1.000000 248 235 215 1.000000
0.600877 0.020764 0.249837 0.000000 0.000000 1.000000 255 255 255 1.000000
0.108227 0.522716 -0.311868 0.000000 0.000000 1.000000 255 255 255 1.000000
-0.115055 0.279739 -0.288464 0.000000 -0.000000 -1.000000 245 213 152 1.000000
0.008958 -0.092925 0.279867 1.000000 0.000000 0.000000 248 235 215 1.000000
0.442538 -0.593429 -0.080634 -0.000000 1.000000 -0.000000 251 210 152 1.000000
-0.730622 0.347506 0.214731 0.000000 -0.000000 -1.000000 245 213 152 1.000000
-0.719504 -0.276851 0.138926 -1.000000 -0.000000 0.000000 255 255 255 1.000000
0.778378 -0.488234 0.119737 -1.000000 -0.000000 0.000000 255 255 255 1.000000
0.754973 -0.429677 0.079172 1.000000 0.000000 0.000000 255 255 255 1.000000
-0.719504 -0.574076 -0.079175 -1.000000 -0.000000 0.000000 255 255 255 1.000000
0.700865 -0.412564 -0.288464 0.000000 -0.000000 -1.000000 243 211 150 1.000000
0.754575 0.496034 -0.288464 0.000000 0.000000 1.000000 255 255 255 1.000000
0.489310 -0.483909 -0.270911 0.000000 -0.000000 -1.000000 255 255 255 1.000000
0.123914 0.593494 0.214731 0.000000 0.000000 1.000000 255 255 255 1.000000
-0.157550 -0.112766 0.267391 0.000000 -0.000000 -1.000000 255 255 255 1.000000
0.591336 0.339384 -0.288464 0.000000 -0.000000 -1.000000 247 206 148 1.000000
-0.052478 0.170419 0.247723 1.000000 0.000000 0.000000 255 255 255 1.000000
0.008958 -0.210947 0.269179 1.000000 0.000000 0.000000 248 235 215 1.000000
-0.199645 -0.616833 -0.256703 0.000000 -1.000000 0.000000 245 208 149 1.000000
0.410141 0.600195 -0.216346 -0.000000 1.000000 -0.000000 250 207 150 1.000000
0.109349 0.614823 0.278812 0.000000 -1.000000 0.000000 255 255 255 1.000000
0.685621 -0.025872 0.055472 0.000000 -1.000000 0.000000 242 205 146 1.000000
0.391224 0.116991 -0.288464 0.000000 0.000000 1.000000 255 255 255 1.000000
-0.377767 -0.224506 0.249837 0.000000 0.000000 1.000000 255 255 255 1.000000
-0.356031 0.003732 -0.288464 0.000000 -0.000000 -1.000000 255 255 255 1.000000
0.272402 -0.616833 -0.140305 -0.000000 1.000000 -0.000000 255 255 255 1.000000
0.087948 0.174890 0.218455 1.000000 0.000000 0.000000 248 235 215 1.000000
-0.719504 0.622544 0.127569 -1.000000 -0.000000 0.000000 255 255 255 1.000000
0.778378 0.054419 -0.053484 1.000000 0.000000 0.000000 248 235 215 1.000000
0.778378 0.595825 0.010765 -1.000000 -0.000000 0.000000 255 255 255 1.000000
-0.262918 0.009234 -0.133736 0.000000 -1.000000 0.000000 255 255 255 1.000000
0.003460 -0.235468 -0.288464 0.000000 0.000000 1.000000 255 255 255 1.000000
0.393846 -0.640238 0.220735 0.000000 -1.000000 0.000000 248 235 215 1.000000
-0.422462 -0.593429 -0.192600 -0.000000 1.000000 -0.000000 243 207 143 1.000000
-0.422366 0.597228 -0.311868 0.000000 0.000000 1.000000 255 255 255 1.000000
0.020902 -0.551214 0.249837 0.000000 0.000000 1.000000 248 235 215 1.000000
0.441930 0.600195 -0.035565 -0.000000 1.000000 -0.000000 243 207 143 1.000000
-0.742908 -0.330191 -0.002404 -1.000000 -0.000000 0.000000 248 235 215 1.000000
-0.329034 -0.050233 0.267391 0.000000 0.000000 1.000000 248 235 215 1.000000
-0.353093 0.063965 -0.288464 0.000000 0.000000 1.000000 255 255 255 1.000000
0.778378 -0.091508 0.048372 -1.000000 -0.000000 0.000000 255 255 255 1.000000
-0.662307 0.125709 0.249837 0.000000 0.000000 1.000000 255 255 255 1.000000
0.305392 -0.593429 0.178627 0.000000 -1.000000 0.000000 255 255 255 1.000000
-0.220836 0.487904 0.275383 0.000000 -0.578198 0.815897 248 235 215 1.000000
0.778378 -0.614390 -0.025748 1.000000 0.000000 0.000000 248 235 215 1.000000
-0.503713 0.007677 0.214731 0.000000 0.000000 1.000000 237 205 144 1.000000
-0.015469 -0.405502 0.249837 0.000000 -0.000000 -1.000000 255 255 255 1.000000
-0.573991 0.563798 -0.311868 0.000000 0.000000 1.000000 255 255 255 1.000000
0.102705 -0.616833 0.145930 -0.000000 1.000000 -0.000000 255 255 255 1.000000
-0.658529 -0.578821 -0.311868 0.000000 0.000000 1.000000 255 255 255 1.000000
-0.113143 -0.616833 0.015209 0.000000 -1.000000 0.000000 241 205 141 1.000000
0.441909 -0.478274 0.249837 0.000000 0.000000 1.000000 255 255 255 1.000000
0.754973 -0.038679 0.065001 1.000000 0.000000 0.000000 255 255 255 1.000000
0.234544 -0.230842 -0.288464 0.000000 -0.000000 -1.000000 249 211 150 1.000000
0.723206 -0.162797 0.249837 0.000000 -0.000000 -1.000000 248 235 215 1.000000
0.083902 -0.455047 -0.270911 0.000000 0.000000 1.000000 243 211 150 1.000000
-0.051351 -0.604172 -0.311868 0.000000 0.000000 1.000000 255 255 255 1.000000
0.778378 0.595860 -0.083944 -1.000000 -0.000000 0.000000 255 255 255 1.000000
-0.425573 -0.510633 -0.288464 0.000000 0.000000 1.000000 246 214 153 1.000000
-0.043043 0.600195 -0.250494 0.000000 -1.000000 0.000000 255 255 255 1.000000
-0.593728 0.567000 0.249837 0.000000 0.000000 1.000000 248 235 215 1.000000
-0.152748 0.168963 -0.288464 0.000000 -0.000000 -1.000000 248 211 152 1.000000
-0.293947 0.364958 0.249837 0.000000 0.000000 1.000000 255 255 255 1.000000
0.790080 0.361999 0.231178 -1.000000 -0.000000 0.000000 255 255 255 1.000000
0.501586 -0.570024 0.241615 -0.000000 1.000000 -0.000000 248 235 215 1.000000
-0.189002 0.148695 0.249837 0.000000 0.000000 1.000000 255 255 255 1.000000
-0.247424 -0.027997 -0.311868 0.000000 0.000000 1.000000 255 255 255 1.000000
-0.140677 -0.616833 -0.056788 -0.000000 1.000000 -0.000000 255 255 255 1.000000
-0.351088 0.429349 0.267391 0.000000 0.000000 1.000000 248 235 215 1.000000
-0.260818 -0.342623 -0.270911 0.000000 0.000000 1.000000 248 205 148 1.000000
-0.742908 -0.342929 0.150144 1.000000 0.000000 0.000000 255 255 255 1.000000
-0.351296 0.569542 -0.288464 0.000000 0.000000 1.000000 255 255 255 1.000000
0.477624 0.607841 0.249837 -0.000000 0.000000 1.000000 255 255 255 1.000000
-0.169322 0.005002 -0.288464 0.000000 -0.000000 -1.000000 249 217 156 1.000000
-0.286823 -0.616833 0.105572 -0.000000 1.000000 -0.000000 255 255 255 1.000000
-0.645259 0.600195 0.058065 -0.000000 1.000000 -0.000000 246 209 150 1.000000
-0.754610 0.528410 0.237292 -1.000000 -0.000000 0.000000 248 235 215 1.000000
-0.159291 0.368915 0.267391 0.000000 0.000000 1.000000 248 235 215 1.000000
0.754973 -0.521337 -0.134582 -1.000000 -0.000000 0.000000 240 208 147 1.000000
-0.742908 0.041662 0.066962 -1.000000 -0.000000 0.000000 248 235 215 1.000000
-0.272005 -0.419731 0.267391 0.000000 -0.000000 -1.000000 255 255 255 1.000000
0.666206 0.022830 0.284944 0.000000 0.000000 1.000000 248 235 215 1.000000
-0.368453 0.600195 0.055699 0.000000 -1.000000 0.000000 255 255 255 1.000000
0.689455 0.600195 0.182936 -0.000000 1.000000 -0.000000 240 208 147 1.000000
0.496768 -0.631461 0.253550 0.000000 -1.000000 0.000000 248 235 215 1.000000
0.404847 0.600195 0.158734 -0.000000 1.000000 -0.000000 245 208 149 1.000000
0.171201 -0.025872 0.125449 -0.000000 1.000000 -0.000000 255 255 255 1.000000
-0.135815 -0.616833 0.045067 -0.000000 1.000000 -0.000000 255 255 255 1.000000
0.460478 0.576791 -0.199694 0.000000 -1.000000 0.000000 244 208 142 1.000000
0.166938 -0.349306 0.265209 -1.000000 -0.000000 0.000000 255 255 255 1.000000
0.527599 -0.465367 0.249837 0.000000 0.000000 1.000000 255 255 255 1.000000
0.034425 0.576791 0.137415 -0.000000 1.000000 -0.000000 255 255 255 1.000000
0.161351 -0.453392 0.249837 0.000000 -0.000000 -1.000000 248 235 215 1.000000
0.119777 -0.593429 0.000924 -0.000000 1.000000 -0.000000 244 208 144 1.000000
-0.719504 0.149640 -0.201404 1.000000 0.000000 0.000000 252 211 151 1.000000
-0.145807 -0.261404 -0.270911 0.000000 0.000000 1.000000 243 210 155 1.000000
-0.701271 -0.616833 0.020575 0.000000 -1.000000 0.000000 246 209 150 1.000000
-0.592924 -0.025872 0.108080 0.000000 -1.000000 0.000000 246 209 150 1.000000
0.526923 -0.242568 0.249837 0.000000 0.000000 1.000000 255 255 255 1.000000
-0.432716 -0.025872 -0.070990 0.000000 -1.000000 0.000000 238 201 142 1.000000
0.725070 -0.549365 -0.270911 0.000000 -0.000000 -1.000000 255 255 255 1.000000
-0.562632 0.009234 0.109551 -0.000000 1.000000 -0.000000 245 208 149 1.000000
0.754973 -0.283703 -0.044115 -1.000000 -0.000000 0.000000 243 206 147 1.000000
-0.719504 0.475002 -0.250688 1.000000 0.000000 0.000000 248 211 152 1.000000
0.355401 -0.631461 0.284378 -0.000000 1.000000 -0.000000 255 255 255 1.000000
0.754973 -0.436488 0.136534 -1.000000 -0.000000 0.000000 240 203 144 1.000000
0.702723 -0.616833 0.005979 -0.000000 1.000000 -0.000000 255 255 255 1.000000
-0.218915 0.435249 -0.270911 0.000000 0.000000 1.000000 245 209 145 1.000000
0.676913 -0.564217 0.249837 0.000000 -0.000000 -1.000000 248 235 215 1.000000
-0.742908 0.535747 0.154558 1.000000 0.000000 0.000000 255 255 255 1.000000
-0.742908 -0.514187 0.182798 -1.000000 -0.000000 0.000000 248 235 215 1.000000
0.586734 0.600195 -0.093718 0.000000 -1.000000 0.000000 255 255 255 1.000000
0.500168 -0.025872 -0.026547 -0.000000 1.000000 -0.000000 255 255 255 1.000000
-0.088216 -0.147215 0.284944 0.000000 0.000000 1.000000 248 235 215 1.000000
0.628916 -0.025872 0.163010 0.000000 -1.000000 0.000000 243 206 147 1.000000
0.469400 0.406570 0.249837 0.000000 -0.000000 -1.000000 248 235 215 1.000000
-0.302951 0.548895 0.284944 -0.000000 0.086219 -0.996276 255 255 255 1.000000
-0.754242 0.328906 0.249837 0.000000 0.000000 1.000000 248 235 215 1.000000
-0.479018 -0.019630 0.214731 0.000000 -0.000000 -1.000000 255 255 255 1.000000
-0.126859 -0.082937 -0.270911 0.000000 0.000000 1.000000 243 211 150 1.000000
0.362188 -0.593429 -0.286960 0.000000 -1.000000 0.000000 255 255 255 1.000000
-0.292354 -0.038061 -0.288464 0.000000 -0.000000 -1.000000 255 255 255 1.000000
-0.719504 0.004563 -0.003190 -1.000000 -0.000000 0.000000 255 255 255 1.000000
-0.601815 -0.569923 -0.288464 0.000000 0.000000 1.000000 255 255 255 1.000000
-0.110413 0.600195 -0.195773 -0.000000 1.000000 -0.000000 243 211 150 1.000000
-0.001120 0.009234 -0.011313 0.000000 -1.000000 0.000000 255 255 255 1.000000
-0.719504 -0.342296 0.122842 1.000000 0.000000 0.000000 242 205 146 1.000000
0.770268 -0.469310 0.249837 0.000000 -0.000000 -1.000000 248 235 215 1.000000
-0.026221 0.339475 -0.288464 0.000000 0.000000 1.000000 255 255 255 1.000000
-0.745833 -0.456392 0.284384 -1.000000 -0.000000 0.000000 248 235 215 1.000000
0.722967 -0.025872 -0.182688 0.000000 -1.000000 0.000000 239 207 146 1.000000
0.112680 -0.593429 -0.247198 -0.000000 1.000000 -0.000000 246 209 150 1.000000
0.353009 0.025759 0.249837 0.000000 -0.000000 -1.000000 248 235 215 1.000000
-0.719504 0.619661 0.204467 -1.000000 -0.000000 0.000000 255 255 255 1.000000
0.465604 -0.499811 -0.297489 0.000000 -1.000000 0.000000 255 255 255 1.000000
0.179957 0.154563 0.267391 0.000000 -0.000000 -1.000000 255 255 255 1.000000
0.493343 -0.616833 -0.232609 -0.000000 1.000000 -0.000000 255 255 255 1.000000
-0.608772 -0.025872 0.034905 0.000000 -1.000000 0.000000 252 215 156 1.000000
0.625791 0.576791 -0.215642 -0.000000 1.000000 -0.000000 255 255 255 1.000000
0.073660 0.009234 0.113354 -0.000000 1.000000 -0.000000 242 205 146 1.000000
-0.328942 -0.279676 -0.270911 0.000000 -0.000000 -1.000000 255 255 255 1.000000
-0.742908 0.412311 -0.224172 1.000000 0.000000 0.000000 255 255 255 1.000000
0.513351 0.060045 -0.270911 0.000000 -0.000000 -1.000000 255 255 255 1.000000
-0.742908 0.419297 0.168903 -1.000000 -0.000000 0.000000 248 235 215 1.000000
0.778378 0.598710 -0.292667 1.000000 0.000000 0.000000 248 235 215 1.000000
-0.418095 -0.588330 -0.288464 0.000000 0.000000 1.000000 255 255 255 1.000000
-0.742908 -0.274719 0.073678 1.000000 0.000000 0.000000 255 255 255 1.000000
-0.015033 -0.256864 0.284944 0.000000 -0.000000 -1.000000 255 255 255 1.000000
-0.152052 0.337797 0.249837 0.000000 -0.000000 -1.000000 248 235 215 1.000000
0.754973 0.060065 0.055903 1.000000 0.000000 0.000000 255 255 255 1.000000
0.527030 0.218586 -0.270911 0.000000 0.000000 1.000000 240 203 144 1.000000
-0.715377 -0.078532 -0.294924 -0.000000 1.000000 -0.000000 255 255 255 1.000000
-0.037973 -0.186383 -0.270911 0.000000 0.000000 1.000000 244 207 148 1.000000
0.471099 -0.094127 -0.270911 0.000000 -0.000000 -1.000000 255 255 255 1.000000
-0.067629 -0.277933 0.249837 0.000000 -0.000000 -1.000000 248 235 215 1.000000
0.521078 0.425115 0.267391 0.000000 0.000000 1.000000 248 235 215 1.000000
-0.322565 -0.411102 0.249837 0.000000 -0.000000 -1.000000 248 235 215 1.000000
-0.742908 -0.120507 -0.161737 -1.000000 -0.000000 0.000000 248 235 215 1.000000
0.754973 -0.053144 -0.145271 -1.000000 -0.000000 0.000000 247 210 151 1.000000
0.352365 0.510296 -0.288464 0.000000 -0.000000 -1.000000 242 206 142 1.000000
-0.719558 -0.088807 0.284944 0.000000 0.000000 1.000000 248 235 215 1.000000
-0.255375 -0.357073 0.267391 0.000000 -0.000000 -1.000000 255 255 255 1.000000
-0.131468 0.000858 0.254389 1.000000 0.000000 0.000000 255 255 255 1.000000
0.581905 -0.593429 -0.278343 0.000000 -1.000000 0.000000 255 255 255 1.000000
0.754973 -0.316165 -0.135365 -1.000000 -0.000000 0.000000 248 211 152 1.000000
-0.510994 -0.016902 -0.311868 0.000000 -0.000000 -1.000000 245 207 148 1.000000
0.754973 -0.530748 0.039667 1.000000 0.000000 0.000000 255 255 255 1.000000
-0.043257 0.481567 0.214731 0.000000 -0.000000 -1.000000 245 215 153 1.000000
0.473114 0.576791 -0.162060 -0.000000 1.000000 -0.000000 255 255 255 1.000000
0.754973 0.088756 -0.075673 1.000000 0.000000 0.000000 255 255 255 1.000000
0.161606 -0.616833 -0.183616 0.000000 -1.000000 0.000000 243 215 153 1.000000
0.433712 0.145283 -0.288464 0.000000 0.000000 1.000000 255 255 255 1.000000
0.132249 0.528264 -0.288464 0.000000 -0.000000 -1.000000 255 255 255 1.000000
-0.215984 0.082861 -0.288464 0.000000 -0.000000 -1.000000 242 214 155 1.000000
-0.719504 -0.051902 -0.134679 -1.000000 -0.000000 0.000000 255 255 255 1.000000
-0.142440 0.582279 -0.311868 0.000000 0.000000 1.000000 255 255 255 1.000000
0.575316 0.568481 0.284944 0.000000 -0.060618 0.998161 248 235 215 1.000000
-0.742908 -0.552432 0.000867 1.000000 0.000000 0.000000 255 255 255 1.000000
-0.528780 0.009234 0.117447 0.000000 -1.000000 0.000000 255 255 255 1.000000
-0.170461 0.576791 0.059262 -0.000000 1.000000 -0.000000 255 255 255 1.000000
0.754973 -0.242971 -0.114975 -1.000000 -0.000000 0.000000 244 212 151 1.000000
-0.742908 0.456258 -0.032061 -1.000000 -0.000000 0.000000 248 235 215 1.000000
-0.383188 -0.025872 0.107049 0.000000 -1.000000 0.000000 240 208 147 1.000000
-0.321840 -0.046652 -0.288464 0.000000 -0.000000 -1.000000 244 207 148 1.000000
0.631336 0.059087 -0.311868 0.000000 -0.000000 -1.000000 247 210 151 1.000000
0.602215 -0.494925 0.273832 0.000000 -0.715137 -0.698984 255 255 255 1.000000
-0.291525 -0.611663 -0.288464 0.000000 0.000000 1.000000 239 211 149 1.000000
-0.160762 -0.094674 -0.288464 0.000000 0.000000 1.000000 255 255 255 1.000000
0.272297 0.547303 -0.270911 0.000000 -0.000000 -1.000000 255 255 255 1.000000
-0.702516 0.092612 0.249837 0.000000 0.000000 1.000000 248 235 215 1.000000
0.736499 0.514360 0.249837 0.000000 0.000000 1.000000 255 255 255 1.000000
-0.373083 -0.384502 -0.288464 0.000000 -0.000000 -1.000000 244 208 144 1.000000
0.425239 0.092090 0.249837 0.000000 0.000000 1.000000 255 255 255 1.000000
0.125340 -0.025872 0.068827 0.000000 -1.000000 0.000000 239 207 146 1.000000
0.654573 0.337095 -0.288464 0.000000 -0.000000 -1.000000 247 217 155 1.000000
-0.742908 0.287907 -0.299261 -1.000000 -0.000000 0.000000 248 235 215 1.000000
-0.359053 0.477332 -0.270911 0.000000 -0.000000 -1.000000 255 255 255 1.000000
0.506737 0.600195 -0.032697 0.000000 -1.000000 0.000000 255 255 255 1.000000
-0.740731 -0.640238 -0.225603 0.000000 -1.000000 0.000000 247 215 154 1.000000
0.790080 0.306892 0.243327 1.000000 0.000000 0.000000 248 235 215 1.000000
0.189263 0.600195 -0.082279 0.000000 -1.000000 0.000000 255 255 255 1.000000
0.492829 -0.025872 -0.180188 0.000000 -1.000000 0.000000 252 220 159 1.000000
0.388584 0.156403 0.249837 0.000000 0.000000 1.000000 255 255 255 1.000000
-0.719504 -0.297284 -0.099034 1.000000 0.000000 0.000000 248 211 152 1.000000
0.360036 -0.335347 0.267391 0.000000 -0.000000 -1.000000 255 255 255 1.000000
-0.161557 0.293932 -0.270911 0.000000 -0.000000 -1.000000 255 255 255 1.000000
-0.615643 0.548602 -0.288464 0.000000 -0.000000 -1.000000 255 255 255 1.000000
0.218776 0.600195 0.169472 -0.000000 1.000000 -0.000000 246 214 153 1.000000
0.629917 0.600195 -0.159115 -0.000000 1.000000 -0.000000 249 217 157 1.000000
-0.719504 0.093901 -0.015463 1.000000 0.000000 0.000000 246 209 150 1.000000
-0.334660 -0.616833 -0.002861 0.000000 -1.000000 0.000000 244 207 148 1.000000
0.754973 0.214823 0.070516 1.000000 0.000000 0.000000 255 255 255 1.000000
0.680777 -0.104118 -0.288464 0.000000 0.000000 1.000000 255 255 255 1.000000
-0.388199 -0.280769 0.267391 0.000000 -0.000000 -1.000000 255 255 255 1.000000
0.458007 0.556817 -0.288464 0.000000 0.000000 1.000000 255 255 255 1.000000
0.719867 -0.546655 0.226631 1.000000 0.000000 0.000000 255 255 255 1.000000
-0.343146 -0.344825 0.249837 0.000000 -0.000000 -1.000000 248 235 215 1.000000
0.314454 -0.025872 -0.041087 0.000000 -1.000000 0.000000 247 211 147 1.000000
-0.282506 0.195986 0.267391 0.000000 0.000000 1.000000 248 235 215 1.000000
0.391511 -0.616833 -0.249067 0.000000 -1.000000 0.000000 243 206 147 1.000000
0.239283 -0.616833 0.116284 0.000000 -1.000000 0.000000 245 213 152 1.000000
-0.040347 0.009234 0.022842 -0.000000 1.000000 -0.000000 242 206 142 1.000000
0.736184 -0.362465 0.249837 0.000000 0.000000 1.000000 248 235 215 1.000000
-0.188301 -0.124799 -0.288464 0.000000 -0.000000 -1.000000 246 209 150 1.000000
0.754973 0.411060 0.037100 1.000000 0.000000 0.000000 255 255 255 1.000000
0.733972 -0.354517 -0.288464 0.000000 0.000000 1.000000 255 255 255 1.000000
-0.383638 -0.616833 0.010736 -0.000000 1.000000 -0.000000 255 255 255 1.000000
-0.276608 0.600195 -0.239427 0.000000 -1.000000 0.000000 255 255 255 1.000000
-0.667325 -0.610204 -0.311868 0.000000 0.000000 1.000000 255 255 255 1.000000
-0.063165 -0.200233 -0.288464 0.000000 0.000000 1.000000 255 255 255 1.000000
-0.564907 -0.483816 0.267391 0.000000 0.000000 1.000000 248 235 215 1.000000
-0.066398 0.600195 0.063122 -0.000000 1.000000 -0.000000 252 215 156 1.000000
0.051623 0.424172 -0.270911 0.000000 0.000000 1.000000 244 207 148 1.000000
0.640877 0.295074 0.255947 -1.000000 -0.000000 0.000000 248 235 215 1.000000
-0.384789 -0.609479 -0.288464 0.000000 0.000000 1.000000 247 215 152 1.000000
0.104575 0.380146 -0.288464 0.000000 0.000000 1.000000 255 255 255 1.000000
-0.742908 -0.496563 -0.109004 -1.000000 -0.000000 0.000000 248 235 215 1.000000
-0.719504 -0.377283 -0.082360 1.000000 0.000000 0.000000 248 211 152 1.000000
-0.367067 -0.146934 0.249837 0.000000 0.000000 1.000000 255 255 255 1.000000
0.356916 -0.616833 -0.238615 -0.000000 1.000000 -0.000000 255 255 255 1.000000
-0.719504 0.448663 -0.174185 -1.000000 -0.000000 0.000000 255 255 255 1.000000
-0.266081 0.028747 -0.288464 0.000000 -0.000000 -1.000000 252 215 156 1.000000
0.781620 -0.050638 0.249837 0.000000 -0.000000 -1.000000 255 255 255 1.000000
0.764204 0.266119 0.249837 0.000000 -0.000000 -1.000000 255 255 255 1.000000
0.254673 0.097115 -0.270911 0.000000 0.000000 1.000000 243 206 147 1.000000
-0.302954 -0.593429 -0.162017 -0.000000 1.000000 -0.000000 244 212 151 1.000000
0.754973 0.509305 0.067524 -1.000000 -0.000000 0.000000 244 207 148 1.000000
0.349408 -0.593429 -0.078496 0.000000 -1.000000 0.000000 255 255 255 1.000000
-0.670057 -0.593429 -0.028230 -0.000000 1.000000 -0.000000 246 210 146 1.000000
-0.095174 0.213956 -0.270911 0.000000 0.000000 1.000000 246 209 150 1.000000
-0.376699 0.321597 -0.288464 0.000000 0.000000 1.000000 255 255 255 1.000000
0.324998 -0.616833 0.072513 0.000000 -1.000000 0.000000 245 213 152 1.000000
-0.239994 -0.226784 0.267391 0.000000 -0.000000 -1.000000 255 255 255 1.000000
0.002916 0.009234 0.126185 -0.000000 1.000000 -0.000000 244 212 151 1.000000
-0.251020 0.600195 -0.260806 -0.000000 1.000000 -0.000000 245 208 149 1.000000
0.150429 0.511309 0.249837 0.000000 0.000000 1.000000 255 255 255 1.000000
-0.136336 -0.616833 0.112462 -0.000000 1.000000 -0.000000 255 255 255 1.000000
-0.041999 -0.624942 0.249837 0.000000 -0.000000 -1.000000 255 255 255 1.000000
-0.742908 0.523000 -0.110392 1.000000 0.000000 0.000000 255 255 255 1.000000
-0.277990 -0.025872 0.075922 -0.000000 1.000000 -0.000000 255 255 255 1.000000
0.617997 -0.571126 0.284944 -0.000000 0.078916 0.996881 248 235 215 1.000000
-0.187091 0.200407 0.249837 0.000000 -0.000000 -1.000000 248 235 215 1.000000
-0.307202 -0.160399 0.267391 0.000000 -0.000000 -1.000000 255 255 255 1.000000
-0.329944 -0.462296 -0.288464 0.000000 0.000000 1.000000 255 255 255 1.000000
-0.719504 0.036893 -0.165818 -1.000000 -0.000000 0.000000 255 255 255 1.000000
-0.490225 0.600195 -0.219760 -0.000000 1.000000 -0.000000 242 205 146 1.000000
0.064639 0.614823 0.254452 0.000000 -1.000000 0.000000 255 255 255 1.000000
-0.719504 0.530383 -0.275074 1.000000 0.000000 0.000000 246 210 146 1.000000
-0.734712 -0.287302 0.249837 0.000000 -0.000000 -1.000000 248 235 215 1.000000
-0.131468 0.603496 0.280774 1.000000 0.000000 0.000000 255 255 255 1.000000
-0.742908 -0.021167 -0.014614 -1.000000 -0.000000 0.000000 248 235 215 1.000000
0.204234 0.600195 0.024019 0.000000 -1.000000 0.000000 255 255 255 1.000000
-0.369222 0.009234 -0.003094 0.000000 -1.000000 0.000000 255 255 255 1.000000
0.123152 0.157348 0.284944 0.000000 0.000000 1.000000 248 235 215 1.000000
-0.465862 -0.414636 0.249837 0.000000 0.000000 1.000000 255 255 255 1.000000
0.091012 -0.054843 -0.288464 0.000000 0.000000 1.000000 246 209 150 1.000000
-0.719504 -0.318632 -0.263731 1.000000 0.000000 0.000000 244 212 151 1.000000
-0.742908 -0.572361 0.113090 1.000000 0.000000 0.000000 255 255 255 1.000000
0.233808 -0.025872 -0.196194 0.000000 -1.000000 0.000000 246 212 152 1.000000
-0.521118 -0.593429 -0.013516 -0.000000 1.000000 -0.000000 245 209 145 1.000000
-0.742908 0.459464 0.071520 1.000000 0.000000 0.000000 255 255 255 1.000000
-0.113155 0.600195 -0.049937 -0.000000 1.000000 -0.000000 246 210 146 1.000000
0.644492 0.009234 -0.084847 -0.000000 1.000000 -0.000000 248 208 145 1.000000
-0.636977 -0.616833 -0.229177 -0.000000 1.000000 -0.000000 255 255 255 1.000000
0.779786 -0.003821 0.284944 0.000000 0.000000 1.000000 248 235 215 1.000000
-0.140359 0.600195 0.191878 0.000000 -1.000000 0.000000 255 255 255 1.000000
-0.742908 -0.147658 -0.114326 -1.000000 -0.000000 0.000000 248 235 215 1.000000
-0.670100 0.302899 -0.270911 0.000000 -0.000000 -1.000000 255 255 255 1.000000
0.184648 0.591271 0.214731 0.000000 0.000000 1.000000 255 255 255 1.000000
0.754973 0.579966 -0.000939 -1.000000 -0.000000 0.000000 247 209 146 1.000000
-0.742908 -0.516405 0.071051 -1.000000 -0.000000 0.000000 248 235 215 1.000000
-0.024478 -0.236718 0.214731 0.000000 0.000000 1.000000 255 255 255 1.000000
-0.324339 -0.593429 0.189600 -0.000000 1.000000 -0.000000 248 216 155 1.000000
0.750958 0.544338 0.214731 0.000000 -0.000000 -1.000000 248 207 149 1.000000
-0.080385 0.576791 0.151749 0.000000 -1.000000 0.000000 252 215 149 1.000000
-0.642730 -0.593429 -0.120388 0.000000 -1.000000 0.000000 255 255 255 1.000000
0.686772 -0.592983 0.284944 0.000000 0.000000 1.000000 248 235 215 1.000000
-0.605407 0.339975 0.277924 -1.000000 -0.000000 0.000000 255 255 255 1.000000
-0.456504 0.390838 -0.288464 0.000000 -0.000000 -1.000000 241 204 145 1.000000
-0.719504 -0.065482 -0.037798 1.000000 0.000000 0.000000 243 205 146 1.000000
0.411278 0.316683 -0.270911 0.000000 0.000000 1.000000 248 211 152 1.000000
0.154666 -0.616833 -0.214681 -0.000000 1.000000 -0.000000 255 255 255 1.000000
0.337428 0.600195 0.094638 -0.000000 1.000000 -0.000000 250 218 157 1.000000
-0.489814 0.576791 -0.270280 0.000000 -1.000000 0.000000 240 204 140 1.000000
0.778378 0.271381 -0.229253 1.000000 0.000000 0.000000 248 235 215 1.000000
0.560965 -0.616833 0.189966 -0.000000 1.000000 -0.000000 255 255 255 1.000000
-0.122159 0.576791 0.128568 -0.000000 1.000000 -0.000000 255 255 255 1.000000
-0.152790 0.576791 0.120548 -0.000000 1.000000 -0.000000 255 255 255 1.000000
-0.355009 0.015386 0.267391 0.000000 -0.000000 -1.000000 255 255 255 1.000000
0.060500 -0.250352 -0.288464 0.000000 0.000000 1.000000 255 255 255 1.000000
0.289749 0.576791 -0.250825 -0.000000 1.000000 -0.000000 255 255 255 1.000000
0.675285 -0.313766 0.249837 0.000000 0.000000 1.000000 255 255 255 1.000000
-0.444040 -0.021935 0.249837 0.000000 -0.000000 -1.000000 248 235 215 1.000000
0.091730 -0.593429 0.180903 0.000000 -1.000000 0.000000 255 255 255 1.000000
0.760265 -0.423586 0.214731 0.000000 -0.000000 -1.000000 243 211 150 1.000000
-0.555240 -0.025872 0.064578 -0.000000 1.000000 -0.000000 255 255 255 1.000000
-0.627631 -0.013289 -0.288464 0.000000 0.000000 1.000000 255 255 255 1.000000
-0.742908 0.428076 0.035304 -1.000000 -0.000000 0.000000 248 235 215 1.000000
0.264439 -0.616833 -0.040133 -0.000000 1.000000 -0.000000 255 255 255 1.000000
0.778378 -0.126743 -0.138236 1.000000 0.000000 0.000000 248 235 215 1.000000
-0.203182 -0.189045 0.249837 0.000000 0.000000 1.000000 255 255 255 1.000000
0.042287 -0.055832 -0.288464 0.000000 0.000000 1.000000 243 206 147 1.000000
0.778378 -0.078578 -0.038772 1.000000 0.000000 0.000000 248 235 215 1.000000
-0.719504 -0.235091 0.036944 1.000000 0.000000 0.000000 244 207 148 1.000000
-0.221947 0.211134 0.249837 0.000000 -0.000000 -1.000000 248 235 215 1.000000
-0.493998 0.141833 -0.288464 0.000000 0.000000 1.000000 255 255 255 1.000000
-0.614225 -0.025872 -0.159629 -0.000000 1.000000 -0.000000 255 255 255 1.000000
-0.545842 -0.616833 0.185983 -0.000000 1.000000 -0.000000 255 255 255 1.000000
-0.310692 0.576791 -0.180072 0.000000 -1.000000 0.000000 245 213 152 1.000000
-0.283158 -0.528733 0.282085 -0.000000 0.992179 0.124819 248 235 215 1.000000
-0.689252 -0.025872 -0.193897 0.000000 -1.000000 0.000000 242 206 142 1.000000
0.469197 -0.593429 0.137577 -0.000000 1.000000 -0.000000 251 214 155 1.000000
-0.516329 0.009234 -0.011683 -0.000000 1.000000 -0.000000 248 212 148 1.000000
0.544772 0.600195 0.136767 0.000000 -1.000000 0.000000 255 255 255 1.000000
0.086560 0.563154 -0.270911 0.000000 -0.000000 -1.000000 255 255 255 1.000000
-0.569989 -0.615583 0.284944 0.000000 -0.020749 -0.999785 255 255 255 1.000000
0.421202 0.576791 -0.096636 0.000000 -1.000000 0.000000 243 209 149 1.000000
-0.135665 -0.475013 -0.270911 0.000000 -0.000000 -1.000000 255 255 255 1.000000
-0.312440 -0.616833 -0.256050 -0.000000 1.000000 -0.000000 255 255 255 1.000000
0.666012 0.497434 0.284944 0.000000 -0.000000 -1.000000 255 255 255 1.000000
-0.317826 -0.614400 0.214731 0.000000 -0.000000 -1.000000 242 205 146 1.000000
-0.557470 -0.310663 0.267391 0.000000 0.000000 1.000000 248 235 215 1.000000
-0.077839 0.516718 -0.288464 0.000000 -0.000000 -1.000000 246 212 152 1.000000
-0.025900 -0.375651 -0.270911 0.000000 0.000000 1.000000 248 206 142 1.000000
0.729478 -0.616833 -0.258454 0.000000 -1.000000 0.000000 242 202 137 1.000000
0.338518 0.195617 -0.270911 0.000000 0.000000 1.000000 246 214 153 1.000000
0.205982 -0.469724 0.249837 0.000000 0.000000 1.000000 255 255 255 1.000000
-0.307355 -0.135402 -0.288464 0.000000 0.000000 1.000000 255 255 255 1.000000
-0.450518 0.009234 0.148311 -0.000000 1.000000 -0.000000 242 210 149 1.000000
-0.270780 -0.584405 0.284944 -0.000000 0.061552 0.998104 248 235 215 1.000000
0.527454 -0.593429 -0.111199 0.000000 -1.000000 0.000000 255 255 255 1.000000
0.754973 -0.076746 -0.167696 1.000000 0.000000 0.000000 255 255 255 1.000000
-0.201043 0.576791 0.132170 0.000000 -1.000000 0.000000 246 214 153 1.000000
-0.742908 -0.370809 -0.131862 1.000000 0.000000 0.000000 255 255 255 1.000000
-0.719504 0.292848 0.183383 1.000000 0.000000 0.000000 243 207 143 1.000000
-0.247927 0.009234 0.065159 0.000000 -1.000000 0.000000 255 255 255 1.000000
-0.083788 -0.616833 -0.076755 0.000000 -1.000000 0.000000 244 207 148 1.000000
0.778378 0.133197 0.169224 1.000000 0.000000 0.000000 248 235 215 1.000000
0.305347 -0.376343 0.267391 0.000000 -0.000000 -1.000000 255 255 255 1.000000
0.535765 -0.395943 -0.288464 0.000000 -0.000000 -1.000000 244 207 148 1.000000
-0.719504 -0.170722 -0.158429 1.000000 0.000000 0.000000 245 213 152 1.000000
-0.633942 0.170515 0.249837 0.000000 -0.000000 -1.000000 248 235 215 1.000000
-0.159550 -0.156546 0.267391 0.000000 -0.000000 -1.000000 255 255 255 1.000000
0.778378 -0.603445 -0.074976 -1.000000 -0.000000 0.000000 255 255 255 1.000000
-0.200725 -0.616833 0.019664 0.000000 -1.000000 0.000000 239 203 139 1.000000
-0.363326 -0.616833 -0.143769 -0.000000 1.000000 -0.000000 255 255 255 1.000000
0.441011 0.297397 0.267391 0.000000 -0.000000 -1.000000 255 255 255 1.000000
-0.742908 0.291066 0.006389 -1.000000 -0.000000 0.000000 248 235 215 1.000000
